-22 104 921
21 83 665
22 86 689
26 85 667
22 87 695
30 83 652
37 82 628
37 81 619
37 81 619
30 86 675
30 86 675
31 86 676
31 86 677
31 86 678
31 86 679
40 83 635
40 83 635
40 83 636
40 83 637
35 85 671
36 85 667
36 85 668
35 86 674
36 86 675
36 86 676
36 86 676
36 86 677
39 85 666
39 85 667
39 85 668
39 85 669
40 85 670
40 85 671
41 85 667
41 85 668
41 85 673
41 85 674
41 86 675
41 86 676
42 86 677
42 86 677
42 86 678
42 86 679
43 86 680
44 85 674
40 84 668
12 96 836
45 82 648
42 84 671
45 83 653
46 82 648
46 83 655
46 83 656
40 73 578
31 58 467
32 58 464
49 82 647
49 82 648
49 82 649
45 85 680
24 94 811
13 98 864
49 81 642
49 81 642
51 83 655
51 83 656
51 83 656
52 83 657
50 84 668
39 89 744
-22 80 503
-121 104 818
-121 105 820
-121 105 822
-121 105 823
-121 105 824
-118 104 817
-118 105 819
-118 105 820
-118 105 821
-118 105 822
-121 106 833
-115 104 817
-115 104 818
-115 105 819
-113 104 816
-113 104 818
-113 105 819
-114 105 825
-112 104 817
-112 105 819
-111 105 820
-111 105 821
-117 106 840
-134 111 900
-103 104 809
-93 101 777
-91 101 773
-65 89 659
-67 95 700
-18 82 545
-36 83 579
-34 27 222
-109 112 873
-35 28 234
-108 112 877
-106 112 874
-108 113 882
-105 112 872
-104 112 873
-104 112 875
-99 103 813
-96 103 806
-101 104 824
-94 102 800
-104 105 835
-129 112 921
-92 102 801
-92 102 803
-93 103 808
-93 103 809
-93 103 810
-93 103 812
-115 109 886
-110 105 849
-114 109 889
-92 104 818
-111 108 886
-79 101 789
-79 101 791
-79 101 792
-76 100 785
-75 100 782
-75 100 784
-70 99 770
-70 99 771
-54 95 716
-54 95 717
-72 100 782
-73 100 786
-72 100 784
-73 102 801
-73 103 803
-72 103 804
-70 102 797
-71 102 802
-72 101 795
-76 103 818
-67 102 799
-65 100 784
-65 100 786
-65 100 787
-66 101 791
-64 100 785
-63 100 786
-63 100 788
-63 101 789
-63 101 790
-65 101 798
-65 101 799
-64 102 800
-64 102 802
-60 100 786
-64 102 804
-64 102 805
-64 102 807
-59 101 791
-59 101 792
-63 102 810
-61 102 805
-72 105 849
-72 106 853
-69 101 819
-49 97 769
-67 103 838
-45 96 756
-45 96 757
-45 98 773
-45 99 774
-43 98 768
-44 98 773
-44 99 774
-43 99 775
-44 99 781
-48 100 798
-67 106 872
-35 96 755
-34 96 756
-34 96 758
-34 97 759
-34 97 760
-34 97 761
-32 96 758
-30 96 749
-31 96 757
-31 97 758
-31 97 759
-30 96 757
-30 96 758
-30 99 774
-30 99 775
-28 96 758
-28 97 759
-30 97 770
-30 98 771
-41 101 820
-109 124 1106
-25 96 757
-25 96 758
-23 96 752
-23 96 754
-25 97 764
-24 97 759
-101 123 1095
-87 119 1039
-2 90 675
16 83 593
16 83 594
16 83 594
17 83 595
-1 30 230
18 87 625
25 108 772
40 158 1120
40 158 1122
9 54 397
10 54 397
2 56 419
10 55 398
10 55 398
10 55 398
9 55 402
0 56 429
0 56 429
-14 58 471
-13 58 471
-9 97 767
-8 97 769
-10 98 778
-8 97 771
-6 97 765
-6 97 766
-6 97 767
-5 97 765
-5 97 769
-4 97 763
-3 97 764
-3 97 765
-3 97 767
-3 97 768
-2 97 769
-13 102 825
-13 102 826
0 97 765
0 97 766
0 97 764
0 97 768
1 97 762
1 99 778
2 99 780
3 98 777
3 99 778
3 103 815
2 109 861
6 107 844
7 112 883
7 112 880
11 136 1071
12 137 1073
13 136 1068
13 136 1070
17 92 719
18 92 716
18 92 717
18 92 718
18 92 719
17 93 728
17 93 729
18 93 730
19 86 668
19 86 669
19 86 670
20 86 668
20 86 669
20 86 670
20 86 670
18 87 683
19 87 684
21 86 673
19 85 674
21 85 667
21 85 667
25 83 646
23 84 658
24 86 670
26 85 662
25 86 669
26 85 667
5 94 782
-80 128 1233
22 86 686
21 87 691
30 83 649
36 81 615
37 81 615
37 81 616
30 86 671
30 86 672
30 86 673
31 86 673
31 86 674
31 86 675
39 82 631
40 83 632
40 83 633
38 83 644
34 85 668
35 85 664
36 85 665
35 86 670
35 86 671
36 86 672
36 86 673
36 86 674
38 85 663
39 85 664
39 85 664
39 85 665
39 85 666
40 85 667
41 85 664
41 85 664
40 85 669
41 85 670
41 85 671
41 86 672
41 86 673
42 86 674
42 86 675
42 86 675
44 85 669
41 87 687
13 100 865
41 85 680
43 87 693
43 87 691
43 87 697
46 82 644
7 100 882
8 100 883
45 81 642
39 72 568
39 72 568
37 74 594
37 64 509
49 82 645
36 89 729
24 94 806
13 100 877
50 82 649
50 82 650
50 82 650
50 83 651
51 83 652
51 83 653
51 83 654
50 84 665
39 89 740
-21 78 488
-121 104 811
-121 104 815
-120 105 816
-120 105 818
-120 105 819
-117 104 812
-117 104 813
-117 104 814
-117 105 816
-117 105 817
-120 105 827
-114 104 811
-114 104 813
-114 104 814
-113 104 811
-113 104 812
-112 104 814
-111 104 811
-111 104 812
-111 104 813
-111 104 815
-111 105 816
-116 106 834
-105 103 802
-133 111 895
-108 105 822
-92 101 773
-92 101 774
-68 95 699
-65 89 656
-18 82 543
-37 87 603
-35 83 577
-103 107 830
-34 27 226
-126 135 1049
-105 111 867
-107 112 876
-104 111 866
-100 107 831
-100 107 832
-100 107 833
-109 110 865
-105 109 854
-97 107 829
-95 104 813
-134 117 958
-134 117 960
-118 113 907
-93 106 828
-93 107 829
-93 107 831
-86 98 767
-97 99 791
-107 102 825
-109 104 845
-88 99 779
-99 113 887
-93 112 869
-112 105 861
-78 100 784
-78 102 797
-80 103 803
-78 101 788
-76 100 781
-74 100 779
-74 100 780
-74 100 781
-62 99 753
-53 95 713
-54 97 727
-73 102 794
-15 84 585
-71 100 780
-72 102 797
-70 102 791
-70 102 792
-71 102 797
-69 102 794
-69 102 796
-66 100 781
-65 100 779
-66 102 796
-66 102 798
-65 101 785
-63 100 780
-63 100 781
-63 100 783
-107 113 942
-63 101 785
-64 101 793
-64 101 794
-64 101 795
-64 101 796
-64 102 798
-59 100 781
-59 100 784
-59 100 785
-59 101 786
-58 101 787
-63 102 805
-61 102 800
-70 105 834
-105 116 970
-62 103 811
-71 106 849
-71 106 850
-71 106 852
-71 106 853
-91 114 950
-91 114 952
-69 107 870
-46 100 782
-46 100 783
-46 100 784
-45 100 782
-44 100 783
-44 102 796
-44 102 797
-45 103 803
-46 103 809
-50 105 827
-69 111 907
-69 111 909
-34 96 752
-34 96 753
-34 96 754
-34 96 755
-34 99 771
-30 97 758
-30 98 759
-31 96 752
-31 96 754
-31 96 755
-30 96 752
-30 98 768
-30 98 769
-30 98 770
-29 98 768
-28 98 769
-31 99 781
-34 101 798
-61 110 913
-26 98 767
-25 98 768
-25 96 755
-23 96 749
-23 98 765
-23 96 751
-25 97 762
-25 99 778
-103 127 1118
-100 123 1089
-2 90 672
-2 90 673
16 83 591
17 83 592
17 83 593
-1 30 230
-1 30 230
19 87 623
25 108 770
40 158 1114
3 55 413
4 55 413
4 55 414
10 55 397
11 55 395
9 55 401
0 56 428
0 56 424
0 56 424
-13 58 464
-13 58 470
-9 97 762
-9 99 778
-8 97 764
-8 97 765
-8 97 766
-6 97 760
-6 97 761
-6 97 762
-5 97 760
-5 97 765
-4 97 759
-3 97 760
-3 97 761
-3 97 762
-4 98 771
-3 97 764
-13 101 819
-13 102 820
0 97 760
0 97 761
0 97 759
0 97 764
1 96 758
1 97 759
1 97 760
2 96 757
3 96 759
2 97 763
1 98 772
4 96 758
4 96 759
5 96 757
5 96 758
6 97 759
7 98 771
7 98 773
10 112 876
9 102 803
9 102 804
8 103 816
8 103 814
7 115 908
19 108 835
26 130 1001
16 88 688
19 87 676
20 89 689
20 89 690
21 89 688
21 89 688
21 89 689
22 92 715
20 93 729
-1 95 785
21 86 669
21 86 674
21 86 674
26 85 652
26 85 653
26 85 654
24 82 636
25 85 664
27 92 713
28 92 711
28 92 712
1 96 799
22 88 694
30 85 655
-15 104 901
37 82 621
36 81 612
30 85 661
32 92 716
33 92 717
30 86 669
30 86 670
31 86 671
31 86 671
39 82 628
39 82 629
40 83 630
38 83 641
34 85 664
35 85 660
35 85 661
35 85 667
35 85 667
35 86 668
36 86 669
36 86 670
38 85 659
38 85 660
39 85 661
39 85 662
39 85 662
39 85 663
40 85 660
41 85 661
40 85 666
40 85 667
41 85 667
41 85 668
41 86 669
41 86 670
42 86 671
42 86 672
42 86 671
33 91 734
13 100 859
42 87 688
42 87 689
43 87 687
43 87 691
48 93 737
51 92 719
-28 122 1152
-24 118 1103
-47 122 1189
-35 117 1124
-35 117 1126
47 81 631
44 84 672
36 88 725
-43 133 1292
13 99 871
20 39 314
50 82 647
50 82 648
52 85 671
53 85 672
53 86 673
48 88 709
19 99 860
-22 80 498
-31 80 514
-133 105 806
-123 98 759
-120 104 804
-122 106 825
-122 107 827
-118 104 807
-120 104 812
-122 107 831
-119 106 823
-119 106 825
-117 104 809
-116 104 810
-111 103 795
-114 104 805
-114 104 806
-113 104 807
-113 104 808
-112 104 806
-112 104 807
-112 104 808
-113 105 814
-110 104 807
-110 104 808
-114 105 821
-116 108 840
-95 101 764
-107 104 807
-132 111 890
-91 101 769
-89 100 762
-59 93 670
-62 94 682
-15 77 506
-35 82 566
-35 87 599
-99 104 805
-99 104 806
-99 104 807
-99 104 808
-34 27 224
-97 104 807
-97 104 808
-97 104 809
-100 105 821
-100 105 822
-105 107 839
-94 104 806
-94 104 807
-94 104 809
-94 104 810
-94 104 811
-130 114 932
-103 107 844
-91 104 807
-91 104 808
-91 104 809
-93 105 819
-93 105 820
-115 112 896
-118 114 918
-94 108 842
-98 113 882
-103 109 864
-89 107 830
-121 115 937
-75 96 751
-75 97 752
-75 97 753
-75 97 754
-75 102 789
-75 102 790
-75 102 792
-75 102 793
-70 101 779
-62 99 750
-54 96 724
-71 100 774
-72 102 791
-69 101 784
-16 86 598
-74 111 855
-69 102 788
-74 111 858
-74 111 859
-69 102 792
-70 101 788
-63 96 747
-66 102 791
-63 101 785
-68 111 854
-64 102 791
-64 102 792
-105 115 944
-62 102 791
-62 100 780
-64 101 788
-64 101 789
-64 101 790
-63 101 791
-63 101 792
-58 100 776
-59 100 779
-58 100 780
-63 102 797
-58 101 782
-58 101 784
-58 101 785
-58 101 786
-58 101 787
-62 102 805
-71 105 842
-71 105 843
-71 106 844
-71 106 846
-71 106 847
-49 97 762
-46 100 777
-46 100 779
-46 100 780
-44 100 777
-43 100 774
-43 100 775
-43 100 777
-43 100 778
-43 101 783
-44 101 788
-48 102 806
-48 103 807
-67 109 883
-62 105 861
-35 100 779
-35 100 780
-33 96 752
-30 95 739
-30 99 769
-31 96 748
-31 96 749
-31 96 750
-30 96 748
-30 98 763
-30 98 764
-30 99 769
-28 98 763
-28 98 764
-31 99 776
-30 99 777
-59 109 901
-26 98 763
-25 98 764
-25 98 765
-25 98 766
-24 98 763
-23 98 761
-22 96 748
-24 97 758
-25 99 774
-102 126 1110
-102 126 1112
-86 119 1027
-2 90 670
16 83 589
17 83 590
17 83 591
-1 30 230
-1 30 230
18 85 602
21 93 663
40 157 1107
40 157 1109
10 55 395
10 55 395
4 56 413
10 86 629
5 55 410
4 56 413
9 55 401
0 56 427
0 56 428
-13 58 469
-13 58 469
-11 43 352
-9 99 772
-11 99 782
-10 100 783
-8 99 775
-5 96 747
-6 98 770
-6 99 771
-6 99 772
-6 99 774
-5 99 775
-4 98 769
-3 97 755
-3 97 756
-3 97 757
-4 97 766
-3 97 759
-12 101 806
-13 101 815
-13 101 816
0 97 757
0 96 754
0 97 759
1 96 753
1 96 754
1 96 755
2 96 753
3 96 754
2 97 758
2 97 760
4 96 753
4 96 754
5 96 752
5 96 753
6 96 754
7 96 752
7 96 753
7 96 754
8 96 752
8 96 753
7 97 764
7 97 762
5 98 778
5 98 779
27 89 667
17 94 722
17 96 737
18 96 738
20 99 764
22 108 829
28 127 972
19 87 672
19 87 673
19 87 674
20 87 672
21 87 670
20 87 674
21 89 686
19 90 699
20 93 726
22 89 689
23 93 719
23 93 720
26 87 671
27 87 672
35 84 628
37 87 650
25 89 687
26 88 685
28 92 707
28 92 708
28 92 709
28 92 713
8 102 831
29 92 715
21 88 694
-53 119 1096
39 88 659
14 39 306
40 88 661
33 91 705
32 92 712
32 92 713
33 92 714
33 92 715
33 92 716
42 88 667
42 88 667
42 88 668
42 88 669
37 91 707
37 91 708
38 91 704
38 91 705
38 92 711
38 92 712
38 92 713
39 92 714
36 86 666
38 85 656
38 85 656
38 85 657
39 85 658
39 85 659
39 85 660
40 85 656
40 85 657
40 85 662
40 85 663
40 85 664
41 85 665
41 85 666
41 86 666
41 86 667
43 85 661
40 86 679
12 100 852
39 82 649
45 83 648
45 83 648
46 85 663
46 83 647
43 87 688
50 92 715
14 101 872
49 83 648
34 87 706
17 100 858
-17 116 1079
52 87 675
48 81 632
48 81 632
52 85 666
52 85 666
52 85 667
52 85 668
53 85 663
48 88 705
20 103 893
-36 82 526
-132 105 801
-122 106 816
-119 104 802
-121 106 820
-121 106 821
-121 106 822
-121 107 824
-121 107 825
-118 106 818
-118 106 819
-118 106 820
-118 106 822
-112 105 806
-115 106 816
-115 106 817
-115 106 819
-115 106 820
-113 106 817
-113 106 818
-113 106 820
-112 106 817
-112 106 818
-110 104 803
-113 105 816
-115 107 834
-91 101 760
-108 106 820
-108 106 821
-101 104 798
-96 102 783
-91 101 768
-101 104 802
-58 88 636
-99 104 798
-99 104 799
-92 96 740
-92 96 741
-91 96 742
-100 105 810
-97 104 801
-97 104 803
-97 104 804
-100 105 816
-100 105 817
-104 107 833
-94 104 801
-94 104 802
-93 104 803
-93 104 805
-93 104 806
-104 107 842
-103 107 843
-112 110 872
-90 104 803
-90 104 804
-90 104 805
-90 104 807
-92 105 816
-114 112 893
-92 105 820
-87 104 805
-86 104 802
-92 111 860
-80 104 807
-80 105 809
-80 105 810
-80 105 811
-77 104 804
-76 104 801
-76 104 803
-76 104 804
-71 103 789
-71 103 790
-62 101 761
-62 101 762
-70 103 794
-72 106 812
-73 106 817
-72 106 818
-72 106 820
-74 111 852
-74 111 853
-73 111 855
-73 111 856
-75 110 852
-65 100 774
-69 111 852
-68 111 854
-67 111 851
-62 102 784
-62 102 786
-63 102 791
-68 110 850
-63 101 784
-63 101 785
-64 103 802
-64 103 803
-59 102 786
-59 102 789
-58 100 775
-58 100 776
-58 100 777
-57 102 788
-57 102 790
-58 103 797
-58 103 798
-61 102 800
-71 105 836
-71 105 837
-70 105 839
-70 105 840
-52 100 773
-70 106 843
-48 97 757
-46 100 774
-45 100 775
-44 100 772
-44 100 773
-43 100 771
-43 100 772
-42 100 773
-42 100 774
-44 101 783
-44 101 785
-44 101 786
-48 102 803
-66 109 878
-34 100 775
-34 100 776
-33 96 748
-30 99 764
-32 100 772
-32 100 774
-31 100 775
-30 100 772
-30 100 773
-31 100 778
-29 100 772
-29 100 773
-29 100 774
-31 101 786
-31 101 787
-60 112 915
-26 102 788
-26 100 774
-25 100 771
-25 102 788
-25 100 777
-23 102 786
-22 96 743
-22 96 744
-22 96 745
-24 99 770
-101 126 1102
-101 126 1105
-98 123 1077
-85 119 1023
-1 90 668
17 83 588
17 83 588
17 84 598
18 85 599
19 87 618
25 108 764
40 157 1101
3 53 394
4 56 412
4 56 412
4 56 412
11 55 394
3 56 417
0 56 426
0 56 426
-13 58 467
-13 58 468
-9 95 736
-9 102 797
-9 103 798
-9 103 799
-9 101 784
-8 101 786
-5 96 743
-6 98 765
-6 98 766
-6 99 768
-6 99 769
-5 99 770
-4 98 764
-3 98 765
-3 98 766
-3 98 767
-4 99 776
-2 99 769
-12 103 817
-13 103 827
0 98 766
0 98 767
0 96 750
0 99 769
1 98 763
1 98 764
2 98 765
2 98 763
3 96 749
2 97 754
1 97 762
4 96 748
4 96 750
5 96 748
5 96 749
6 96 750
6 96 748
7 96 749
7 96 750
8 96 747
8 96 748
7 97 756
7 97 760
5 98 773
10 96 746
5 98 775
26 90 670
17 94 719
17 94 720
18 93 718
18 94 719
18 94 720
17 94 728
19 102 787
19 87 670
20 87 666
21 87 666
21 87 667
20 87 671
18 88 683
21 87 673
21 88 677
21 88 678
21 88 678
26 86 656
26 86 657
26 86 658
24 87 670
24 87 671
25 87 669
27 88 679
28 92 704
28 92 705
29 91 703
29 91 704
21 89 702
31 87 670
31 88 671
39 87 656
34 77 579
40 88 657
33 91 701
32 92 708
32 92 709
32 92 710
33 92 710
33 92 711
41 88 663
42 88 664
42 88 665
42 88 666
36 91 703
37 91 704
38 91 700
38 91 701
37 92 707
38 92 708
38 92 709
38 92 710
39 92 711
41 91 699
41 91 700
41 91 700
42 91 701
42 91 702
42 91 703
43 91 700
43 91 700
43 91 706
43 91 707
43 92 708
44 92 709
41 85 662
41 85 663
41 85 664
42 85 658
40 86 675
12 100 846
42 86 677
45 85 659
45 83 645
45 83 646
46 83 644
47 85 656
50 92 711
35 91 736
43 86 678
36 90 728
-17 116 1068
11 97 844
48 81 628
51 85 661
51 85 662
52 85 663
52 85 664
52 85 664
53 85 659
47 88 701
20 103 887
-23 89 549
-131 104 795
-42 27 223
-123 108 827
-123 108 830
-123 108 831
-123 108 833
-123 108 834
-123 109 836
-120 108 828
-120 108 829
-120 108 831
-122 111 850
-117 106 816
-116 109 835
-119 110 845
-119 110 847
-114 106 813
-114 106 814
-113 106 812
-113 106 813
-113 106 814
-114 106 820
-111 106 813
-109 104 797
-119 112 863
-113 126 944
-120 129 970
-107 106 817
-100 104 795
-100 104 796
-100 104 798
-98 103 793
-98 104 794
-98 104 795
-98 104 797
-98 104 798
-96 104 795
-96 104 796
-98 106 814
-101 107 826
-101 107 827
-107 109 847
-106 109 845
-93 104 796
-93 104 797
-93 104 798
-93 104 799
-93 104 801
-93 104 802
-92 104 803
-103 107 839
-123 113 907
-115 111 883
-92 105 810
-89 104 801
-92 105 811
-87 104 796
-87 104 797
-100 101 798
-80 96 739
-86 104 801
-102 109 854
-80 104 802
-80 104 803
-79 104 805
-79 105 806
-79 105 807
-79 105 808
-75 104 797
-75 104 799
-77 105 808
-70 103 785
-70 103 786
-62 100 758
-62 101 759
-70 103 790
-70 103 791
-16 87 601
-69 104 794
-71 106 811
-70 106 813
-73 111 849
-73 111 850
-89 136 1042
-84 134 1022
-62 96 742
-68 111 848
-67 110 845
-67 110 846
-66 111 848
-66 111 849
-69 112 863
-68 110 846
-64 110 846
-59 102 781
-64 103 798
-59 102 781
-59 102 784
-57 102 780
-56 100 766
-58 100 772
-57 102 783
-57 102 784
-58 103 792
-57 101 777
-57 101 778
-70 105 830
-70 105 832
-70 105 833
-70 105 834
-52 100 768
-52 100 770
-69 106 838
-48 97 755
-45 100 770
-44 100 767
-44 100 768
-43 100 766
-42 100 767
-42 100 768
-42 100 769
-44 101 778
-44 101 780
-44 103 797
-48 104 815
-47 102 799
-47 102 801
-65 109 875
-88 119 989
-64 110 892
-30 99 758
-30 99 759
-32 100 768
-32 100 769
-31 100 770
-30 100 767
-30 100 769
-31 100 773
-29 100 767
-29 100 768
-28 100 769
-31 101 781
-31 101 782
-60 111 908
-106 128 1105
-26 100 768
-25 100 769
-24 100 766
-24 100 768
-24 100 769
-25 100 774
-23 100 767
-23 100 769
-22 100 770
-22 100 771
-24 101 782
-19 99 762
-102 130 1128
-102 130 1131
-88 125 1071
-1 90 665
17 83 586
17 83 586
17 83 587
18 85 597
0 30 228
19 87 617
40 156 1094
41 157 1096
2 56 415
4 55 406
5 56 409
4 56 411
4 56 411
4 56 412
11 55 395
6 55 407
0 56 425
0 56 421
-10 58 459
-10 109 841
-9 100 776
-9 100 777
-9 100 778
-9 100 779
-8 101 781
-5 99 767
-6 100 775
-6 100 777
-6 100 778
-6 100 779
-5 101 780
-4 100 774
-3 102 791
-3 102 792
-3 102 793
-4 103 803
-2 103 795
-5 104 812
-13 108 857
0 98 761
0 98 762
0 98 759
0 98 764
1 98 758
1 98 759
1 98 760
2 98 758
3 98 759
2 98 764
1 99 772
4 98 758
4 98 759
5 98 757
5 98 759
5 98 763
7 98 757
7 98 758
7 98 759
8 98 757
8 98 758
8 96 745
7 97 756
10 96 742
10 96 741
10 96 742
10 96 746
6 98 769
17 94 716
18 93 714
18 93 715
18 94 716
17 94 724
17 94 725
21 95 726
29 122 931
21 88 673
21 88 674
21 87 664
18 88 679
18 88 679
21 87 669
20 87 673
21 88 674
21 88 674
26 86 653
26 86 654
26 86 654
26 86 655
25 86 662
19 72 552
22 76 584
19 68 522
26 87 665
27 87 663
27 87 664
21 89 698
30 86 655
29 87 663
37 85 631
38 85 632
31 88 672
32 91 697
32 92 704
32 92 704
32 92 705
32 92 706
33 92 707
41 88 659
41 88 660
42 88 661
42 88 662
36 91 699
36 91 700
38 91 696
38 91 697
37 91 703
37 92 704
38 92 705
38 92 706
38 92 707
41 91 695
41 91 696
41 91 697
41 91 697
42 91 698
42 91 699
43 91 696
43 91 697
43 91 702
43 91 703
43 91 704
43 92 705
44 92 706
44 92 707
45 91 700
45 92 707
40 86 671
11 97 823
38 82 642
45 85 651
45 85 655
45 85 652
45 85 657
45 83 641
47 85 652
50 92 707
50 92 707
35 91 733
35 91 734
-47 128 1232
43 86 674
16 99 845
-17 115 1058
37 64 493
49 83 645
51 85 658
51 85 658
51 85 659
51 85 660
52 85 661
52 85 661
47 88 697
20 103 880
-23 89 547
-135 109 823
-42 27 223
-122 108 822
-122 108 823
-122 108 825
-122 108 826
-122 108 827
-122 108 829
-122 108 830
-119 108 823
-119 108 824
-119 108 825
-123 109 840
-117 108 823
-117 108 824
-116 108 822
-116 108 823
-116 108 825
-114 108 822
-114 108 823
-114 108 824
-115 108 830
-118 109 840
-108 103 791
-104 96 743
-114 107 822
-96 106 787
-112 126 938
-107 106 813
-111 111 849
-137 119 940
-125 112 880
-100 104 791
-99 104 792
-119 109 857
-119 109 859
-97 104 791
-99 106 809
-98 106 806
-97 106 807
-97 106 809
-100 107 820
-100 107 822
-106 109 841
-94 106 805
-94 106 807
-94 106 808
-94 106 809
-94 106 811
-94 106 812
-94 106 813
-94 106 814
-91 106 807
-91 106 809
-94 107 820
-94 107 821
-93 107 822
-88 106 806
-88 106 807
-88 106 808
-86 104 793
-87 106 811
-87 106 812
-79 104 801
-79 104 802
-76 104 795
-75 104 792
-78 105 806
-78 105 807
-73 104 791
-72 103 789
-72 103 790
-72 104 792
-61 100 755
-61 101 756
-69 103 787
-69 103 789
-69 103 790
-69 104 791
-70 106 809
-70 106 810
-61 103 779
-79 126 960
-82 133 1011
-68 108 824
-64 104 793
-63 103 790
-64 106 807
-63 106 809
-66 107 821
-65 105 806
-60 103 790
-61 106 808
-61 106 807
-60 104 794
-60 104 795
-59 106 806
-59 106 808
-59 104 799
-57 104 794
-57 104 795
-55 96 742
-56 98 757
-63 99 774
-67 100 791
-67 101 793
-67 101 794
-50 96 734
-50 96 735
-51 100 765
-52 102 781
-81 109 888
-44 102 777
-44 102 779
-43 101 776
-43 102 777
-43 102 778
-43 102 783
-44 103 789
-44 103 790
-44 103 791
-36 100 761
-37 101 767
-37 101 768
-47 105 813
-66 111 890
-66 111 891
-30 99 755
-32 100 763
-31 100 764
-31 100 765
-31 100 766
-30 100 764
-31 100 768
-29 99 762
-28 100 763
-28 100 765
-31 101 776
-30 101 777
-59 111 902
-105 127 1095
-26 100 763
-25 100 764
-24 99 762
-24 99 763
-24 100 764
-23 99 761
-23 99 763
-22 100 764
-22 100 765
-22 100 766
-22 100 767
-22 100 768
-19 99 759
-101 129 1120
-101 129 1123
-101 130 1125
-87 125 1066
-1 90 663
17 83 584
17 83 585
17 83 585
0 30 228
19 87 614
19 87 615
26 108 758
41 156 1089
4 49 360
4 56 410
11 86 622
19 83 585
10 55 396
3 55 410
5 87 643
-47 62 550
-9 27 224
-9 100 770
-9 100 771
-9 100 772
-9 100 773
-9 100 775
-8 100 776
-8 101 777
-6 100 771
-6 100 772
-6 100 773
-6 100 774
-5 100 775
-4 100 769
-3 100 770
-3 100 771
-3 100 772
-4 101 782
-2 100 775
-5 102 791
-1 100 770
0 100 771
0 100 768
0 102 785
0 102 790
1 102 783
2 102 785
2 102 786
2 102 787
3 102 784
3 102 789
1 103 798
4 98 754
4 98 755
5 98 753
5 98 754
5 98 758
7 98 753
7 98 754
7 98 755
8 98 752
8 96 739
8 96 740
7 99 766
10 98 752
10 98 753
11 98 752
11 98 753
12 97 751
13 97 748
27 91 674
18 95 723
17 96 731
17 96 733
18 96 734
20 95 722
21 95 722
23 103 780
29 122 927
20 88 674
-35 109 944
-1 96 781
18 82 627
21 89 682
21 89 682
26 87 660
26 87 661
26 87 662
24 88 674
25 87 661
19 72 550
19 72 550
20 72 551
26 87 664
27 87 660
26 87 666
29 86 651
36 83 616
36 83 617
30 71 533
37 84 629
31 88 669
31 88 669
31 92 700
32 92 700
32 92 701
32 92 702
33 92 703
41 88 656
41 88 657
41 88 658
42 88 658
36 91 695
36 91 696
37 91 692
38 91 693
37 91 699
37 91 700
37 92 701
38 92 702
38 92 703
40 91 691
41 91 692
41 91 693
41 91 694
41 91 694
42 91 695
43 91 692
43 91 693
42 91 698
43 91 699
43 91 700
43 91 701
43 91 702
45 91 695
45 91 696
43 93 716
11 99 833
11 97 817
48 91 695
48 91 693
49 91 694
46 84 642
45 85 653
45 85 654
45 82 628
49 91 703
50 92 704
50 92 705
46 85 658
43 87 681
43 87 681
44 87 682
33 93 752
12 101 867
47 81 621
12 30 246
54 91 700
50 85 654
51 85 655
51 85 656
51 85 657
51 85 657
52 85 658
39 92 744
20 102 874
-23 89 544
-132 106 801
-41 27 222
-119 107 805
-117 103 784
-122 108 818
-122 108 819
-122 108 820
-121 108 822
-121 108 823
-121 108 824
-118 108 817
-118 108 818
-118 108 820
-117 107 816
-116 108 817
-116 108 819
-115 107 817
-115 108 818
-115 108 819
-114 107 816
-113 108 818
-115 108 823
-112 108 817
-112 108 819
-116 109 832
-107 100 768
-89 97 725
-101 107 800
-106 109 819
-123 114 891
-100 108 819
-102 108 825
-99 108 817
-101 110 836
-100 110 837
-104 111 850
-104 111 851
-110 113 872
-97 110 834
-97 110 835
-94 106 803
-93 106 804
-93 106 805
-92 106 802
-93 106 808
-93 106 809
-90 105 802
-93 106 812
-93 107 814
-93 107 816
-116 113 894
-88 105 801
-87 105 802
-87 106 803
-87 106 804
-87 106 805
-76 103 787
-76 104 789
-76 104 790
-76 104 791
-78 105 800
-78 105 802
-78 105 803
-72 103 784
-72 103 785
-71 103 787
-69 103 780
-69 103 781
-45 96 700
-69 103 784
-69 103 785
-68 103 786
-68 103 787
-78 108 834
-62 103 778
-65 105 791
-67 105 800
-81 133 1005
-68 108 819
-70 99 765
-62 103 786
-62 103 787
-63 104 792
-60 103 784
-60 103 785
-60 103 786
-59 103 786
-60 104 789
-59 104 790
-58 103 785
-57 103 786
-59 104 794
-57 104 789
-57 104 790
-59 97 752
-67 100 784
-72 109 853
-72 109 855
-72 109 856
-72 109 857
-53 103 788
-53 104 789
-53 104 791
-53 104 792
-93 117 947
-78 107 864
-42 96 731
-43 103 787
-41 96 729
-45 106 809
-46 107 815
-47 111 852
-47 111 853
-47 112 854
-42 110 837
-42 110 839
-39 109 827
-36 101 764
-36 101 765
-47 105 810
-65 111 887
-31 99 758
-31 99 759
-31 100 760
-31 100 761
-31 102 778
-29 101 771
-29 101 772
-29 101 774
-29 101 775
-30 100 771
-31 101 777
-110 128 1106
-104 127 1085
-25 99 758
-25 99 759
-24 99 757
-24 99 758
-24 101 774
-23 99 757
-23 99 758
-22 99 759
-22 99 760
-22 100 761
-24 100 772
-22 100 763
-21 100 765
-23 101 773
-101 129 1113
-100 129 1115
-100 129 1117
-86 124 1059
-11 94 707
0 90 662
17 83 583
18 83 583
18 86 602
19 87 612
19 87 613
26 108 754
41 156 1082
5 56 405
5 56 406
10 55 392
10 55 392
3 55 408
-13 58 456
-92 123 1077
-9 27 223
-10 102 783
-9 100 765
-9 100 766
-9 100 767
-9 100 769
-9 100 770
-8 100 771
-8 100 772
-6 100 766
-6 100 767
-6 100 768
-5 100 766
-5 100 770
-4 100 764
-3 100 765
-3 100 767
-3 100 768
-4 101 777
-3 100 770
-5 101 786
-1 100 765
0 100 766
0 100 764
0 100 765
0 100 769
1 100 763
1 100 764
2 100 766
2 99 763
3 100 764
2 100 769
1 101 777
4 99 763
4 100 765
5 99 763
6 100 764
6 100 765
7 101 777
7 101 779
8 101 776
8 101 777
9 101 778
9 102 779
7 99 761
10 97 747
10 97 749
11 97 747
11 97 748
11 98 749
13 97 744
13 97 745
8 100 774
18 95 720
17 96 729
17 96 730
20 95 717
21 95 718
21 95 719
23 103 776
32 128 960
18 88 673
19 81 621
20 87 667
21 89 679
26 87 657
24 88 669
26 87 658
24 88 671
-66 126 1144
-64 122 1114
-63 123 1116
-65 126 1151
24 83 629
27 88 667
22 90 697
28 88 666
37 84 623
37 84 624
37 84 625
29 88 669
30 88 665
31 88 666
30 88 672
30 88 673
30 88 674
32 92 698
32 92 699
41 88 652
41 88 653
41 88 654
41 88 655
36 91 691
36 91 692
37 91 688
36 91 694
37 91 695
37 91 696
37 91 697
37 91 698
38 92 699
40 91 687
40 91 688
41 91 689
41 91 690
41 91 691
41 91 691
42 91 688
43 91 689
42 91 694
42 91 695
43 91 696
43 91 697
43 91 698
45 91 691
44 91 698
34 97 766
13 108 903
42 89 690
44 93 716
44 93 714
46 88 667
45 86 660
48 91 696
47 88 673
44 82 625
41 77 588
49 91 700
50 91 701
50 92 701
52 91 689
47 94 728
27 106 870
14 113 959
50 86 658
50 86 659
54 91 695
50 85 650
50 85 651
54 91 698
55 91 699
55 91 700
55 91 701
56 91 701
39 92 740
20 102 868
-23 89 542
-126 102 765
-132 111 851
-121 109 817
-121 107 811
-121 107 812
-121 107 814
-121 108 815
-121 108 816
-121 108 817
-121 108 819
-118 107 812
-118 107 813
-122 109 827
-116 107 811
-116 107 812
-112 106 802
-114 107 811
-114 107 812
-114 107 814
-113 107 811
-113 107 812
-114 108 818
-111 107 812
-111 107 813
-111 108 814
-23 82 528
-32 84 559
-103 101 765
-107 109 820
-110 110 830
-130 133 999
-100 107 812
-100 108 814
-101 108 819
-98 107 812
-98 107 813
-98 108 815
-101 109 827
-101 109 828
-103 109 836
-95 107 811
-95 107 813
-95 108 814
-93 107 811
-93 107 812
-93 108 814
-94 108 819
-94 108 820
-92 108 813
-91 108 815
-94 109 826
-94 109 827
-102 111 854
-99 112 860
-90 110 830
-90 110 831
-89 110 828
-88 110 829
-95 112 853
-77 105 798
-77 106 800
-79 106 809
-77 106 802
-79 107 811
-79 107 813
-79 107 814
-72 103 782
-71 103 780
-71 103 782
-71 103 783
-69 103 776
-70 105 793
-70 105 794
-61 103 765
-61 103 766
-61 103 767
-12 88 594
-67 105 795
-66 105 794
-66 105 795
-69 110 830
-78 131 986
-67 110 828
-68 108 819
-63 104 786
-63 105 799
-63 110 828
-59 103 778
-59 103 779
-59 103 781
-59 103 784
-59 103 785
-57 103 780
-59 104 787
-115 122 1000
-105 119 966
-72 109 846
-72 109 847
-72 109 849
-72 109 850
-71 109 851
-53 103 783
-71 109 854
-52 103 786
-52 104 787
-52 104 788
-52 104 789
-84 117 941
-43 103 782
-44 104 787
-45 104 792
-45 104 793
-45 104 795
-44 104 796
-44 104 796
-40 103 782
-40 103 783
-40 103 785
-39 105 798
-37 105 791
-36 103 777
-47 107 823
-67 116 923
-67 116 925
-30 97 741
-32 110 833
-31 102 773
-29 99 752
-29 101 768
-29 101 769
-28 99 755
-31 102 782
-43 107 833
-112 132 1127
-26 101 767
-26 101 768
-25 99 755
-24 99 752
-24 99 753
-24 101 769
-23 101 767
-23 101 768
-23 101 769
-22 101 770
-24 102 781
-22 101 772
-22 102 774
-22 102 775
-21 102 776
-21 102 777
-102 132 1137
-102 133 1139
-99 129 1110
-99 129 1112
-81 118 1001
0 90 659
17 83 581
18 83 581
19 86 600
0 31 227
19 87 610
41 155 1074
19 82 577
19 82 578
10 55 391
5 56 405
4 88 646
-12 94 721
-9 48 379
-11 111 843
-11 102 782
-16 104 806
-9 102 776
-9 102 778
-15 105 810
-15 105 811
-8 102 781
-8 102 782
-5 99 754
-6 100 762
-6 100 763
-5 102 776
-5 100 762
-4 99 760
-3 100 761
-3 100 762
-3 100 763
-4 101 772
-3 100 765
-12 104 812
-13 105 822
0 100 761
0 99 759
0 99 760
0 100 765
1 99 759
1 99 760
1 100 761
2 99 758
3 99 760
2 100 764
1 101 773
4 99 759
4 99 760
5 99 758
5 99 759
5 100 763
7 99 758
7 99 759
7 99 760
8 99 758
8 99 759
9 99 760
7 100 771
10 99 757
11 101 773
11 101 772
11 101 773
13 101 767
13 101 768
14 101 769
14 101 770
14 101 771
28 91 666
17 96 726
20 95 713
20 95 714
21 95 715
22 94 709
23 98 740
29 130 978
18 88 669
20 87 662
20 87 663
22 92 699
20 93 712
25 91 689
25 91 690
25 91 690
6 100 797
-31 110 952
22 90 692
23 94 719
9 96 763
36 84 620
36 83 611
37 84 622
30 91 689
31 91 684
32 91 685
31 91 692
31 91 693
32 91 694
32 92 694
32 92 695
40 88 649
41 88 650
41 88 651
41 88 651
35 91 687
36 91 688
35 87 661
35 88 667
35 88 668
35 88 668
37 91 693
37 91 694
37 91 695
40 90 683
40 91 684
40 91 685
41 91 686
41 91 687
41 91 688
42 90 684
42 91 685
42 91 690
42 91 691
42 91 692
43 91 693
44 91 686
44 91 687
42 92 706
13 108 895
40 88 675
42 91 699
41 88 673
45 86 652
47 89 679
45 86 657
45 86 658
40 76 576
38 71 544
37 72 548
47 88 673
49 88 667
48 88 673
45 90 698
-19 124 1122
13 105 888
47 82 624
13 32 254
53 91 691
54 91 692
54 91 693
54 91 694
54 91 695
55 91 696
55 91 697
54 92 709
42 100 795
22 112 944
-23 89 539
-147 132 987
-112 99 742
-112 99 744
-142 128 962
-120 107 807
-120 107 808
-122 110 826
-122 110 828
-122 110 829
-122 110 831
-119 109 823
-119 109 825
-123 111 839
-117 109 822
-117 109 824
-113 108 813
-116 109 823
-116 109 824
-116 110 825
-114 109 822
-116 110 828
-116 110 829
-127 111 854
-114 108 818
-87 95 701
-91 101 741
-58 95 658
-13 81 510
-42 91 609
-105 105 790
-102 101 760
-108 109 821
-128 132 986
-123 114 882
-99 107 807
-99 107 808
-98 107 805
-98 107 807
-97 107 808
-101 108 820
-101 108 821
-100 109 822
-95 107 805
-94 107 806
-94 107 807
-94 107 809
-93 107 806
-93 107 807
-93 107 808
-91 107 805
-94 108 815
-91 107 808
-91 107 809
-94 108 820
-94 108 822
-93 108 822
-88 107 806
-88 107 807
-88 107 809
-88 109 823
-88 109 824
-89 110 830
-92 109 831
-78 104 785
-77 104 786
-77 104 788
-77 104 789
-77 104 790
-77 104 791
-72 103 776
-71 103 774
-72 105 791
-72 105 792
-72 105 793
-69 105 787
-70 105 792
-68 103 774
-68 103 775
-60 102 761
-44 96 696
-62 103 771
-67 105 790
-67 105 791
-66 105 790
-68 110 824
-66 109 817
-66 109 818
-64 105 792
-65 106 805
-61 105 790
-62 109 822
-62 109 823
-62 110 824
-60 105 794
-60 105 796
-60 106 797
-72 108 833
-72 108 839
-72 108 840
-71 109 841
-71 109 843
-71 109 844
-71 109 846
-53 103 778
-71 109 848
-52 103 781
-52 103 782
-52 104 783
-70 110 854
-70 110 855
-89 119 958
-44 103 782
-45 104 787
-45 104 788
-44 104 790
-44 104 791
-48 106 809
-40 103 777
-40 103 778
-38 103 772
-38 103 777
-38 103 778
-38 103 779
-38 103 781
-36 103 774
-47 107 820
-65 113 898
-31 103 778
-31 103 783
-29 103 777
-29 103 778
-29 103 779
-29 103 780
-31 104 792
-62 116 927
-27 105 793
-26 105 794
-26 105 795
-25 105 793
-25 105 794
-25 106 799
-22 97 734
-22 97 735
-23 101 764
-26 111 841
-26 111 842
-22 109 826
-18 100 754
-19 109 818
-22 110 836
-21 102 772
-21 102 773
-21 102 775
-99 132 1123
-97 131 1118
-98 129 1104
-17 99 753
-11 94 702
17 83 578
18 83 579
18 83 580
19 87 607
0 31 227
0 31 227
18 82 575
19 82 575
19 82 576
10 86 617
-12 94 716
-10 58 451
-11 110 836
-10 96 726
-16 106 820
-16 111 857
-9 106 807
-8 111 842
-8 111 844
-6 110 836
-6 110 838
-5 110 835
-5 101 771
-5 102 772
-4 101 770
-3 101 771
-3 102 772
-3 102 773
-4 102 782
-2 102 775
-12 106 824
-13 107 833
0 101 771
0 101 769
0 101 770
0 101 771
1 99 754
1 99 755
2 101 771
3 101 768
3 99 755
2 100 759
1 100 768
4 99 754
4 99 755
5 99 753
5 99 754
5 100 758
7 99 753
7 99 754
7 99 755
8 99 753
8 99 754
8 99 755
7 100 766
10 99 753
10 99 754
11 99 752
11 99 753
12 99 751
12 99 752
12 99 753
13 99 754
14 99 752
12 100 762
7 103 795
18 97 735
21 98 736
21 98 737
22 98 735
23 98 736
20 99 750
-1 122 968
21 90 682
21 90 682
21 90 683
24 89 672
24 89 673
25 91 686
27 90 678
26 91 685
-31 110 944
22 93 714
29 89 667
29 91 682
36 84 617
38 87 638
30 91 684
30 91 685
31 91 681
32 91 682
31 91 688
31 91 689
31 91 690
32 91 691
32 92 691
40 88 646
40 88 646
41 88 647
41 88 648
35 91 684
35 91 684
36 91 680
36 91 686
36 91 687
36 91 688
37 91 689
37 91 690
39 90 678
39 90 679
40 90 680
40 91 681
40 91 682
40 91 683
39 88 661
40 87 657
40 87 658
40 88 663
40 88 664
40 88 665
41 88 666
42 87 660
41 88 666
32 93 727
12 103 850
43 93 707
47 91 684
41 88 670
47 89 671
46 89 676
45 86 654
-25 121 1086
-60 138 1302
32 86 679
47 86 652
43 88 681
27 97 785
-20 121 1090
49 86 651
29 55 423
51 88 663
51 88 664
53 91 688
53 91 689
54 91 690
54 91 691
54 91 692
55 91 693
53 92 705
42 99 790
22 112 937
-23 89 537
-118 97 721
-42 28 221
-136 116 875
-128 114 853
-108 95 711
-124 111 833
-124 111 834
-124 112 836
-124 112 837
-124 112 838
-124 112 840
-124 112 841
-124 112 843
-121 111 835
-121 112 836
-128 115 870
-121 114 852
-121 114 853
-120 114 851
-120 114 852
-136 131 981
-136 132 982
-136 132 984
-136 132 986
-128 113 866
-134 130 973
-114 108 814
-92 103 751
-92 103 752
-58 95 655
-61 96 667
-20 85 539
-41 93 622
-100 100 753
-127 131 978
-127 131 980
-107 111 839
-100 109 818
-102 110 824
-99 109 817
-99 109 818
-99 109 819
-102 110 831
-102 111 833
-100 108 817
-94 107 800
-94 107 801
-94 107 802
-94 107 803
-92 107 801
-92 107 802
-92 107 803
-91 107 800
-91 107 801
-90 107 803
-90 107 804
-93 108 815
-93 108 816
-93 108 818
-87 107 801
-87 107 802
-87 107 803
-88 109 817
-87 109 818
-89 110 824
-87 108 808
-87 108 810
-102 112 864
-78 107 804
-80 108 814
-80 108 815
-80 108 816
-79 108 817
-74 107 802
-74 107 803
-74 107 804
-74 107 805
-74 107 807
-72 107 800
-74 108 809
-71 107 803
-70 107 800
-70 107 801
-71 109 819
-70 107 804
-44 96 693
-59 101 746
-11 89 596
-11 90 606
-68 109 819
-65 109 812
-65 109 813
-65 109 814
-65 109 815
-66 109 821
-68 98 756
-62 109 816
-61 109 817
-61 109 819
-62 110 822
-59 105 790
-59 105 792
-73 110 845
-68 109 833
-68 109 834
-72 111 855
-72 111 857
-72 111 858
-53 105 789
-53 105 790
-51 103 771
-50 103 772
-71 112 865
-71 112 867
-69 109 849
-69 110 851
-83 116 929
-107 125 1026
-49 105 798
-44 104 783
-44 104 785
-44 104 786
-48 105 802
-40 103 772
-40 103 774
-37 102 764
-38 103 772
-38 103 773
-37 103 771
-37 103 772
-37 103 777
-35 103 770
-46 107 816
-65 113 893
-65 113 895
-31 103 778
-29 103 772
-29 103 773
-29 103 774
-29 103 775
-43 108 837
-62 116 920
-26 103 773
-26 103 774
-26 103 775
-25 103 772
-24 103 773
-25 103 778
-25 104 782
-23 103 773
-23 103 774
-25 104 786
-25 104 787
-21 103 772
-20 103 772
-19 109 813
-19 109 814
-22 110 832
-22 110 833
-22 110 835
-21 111 836
-110 148 1256
-107 148 1250
-108 145 1233
-88 131 1098
-11 101 752
18 83 576
18 83 577
18 83 578
0 31 228
0 31 228
0 31 227
19 82 573
10 86 613
-10 58 443
-9 28 223
-12 104 785
-15 106 816
-9 104 785
-15 107 818
-8 104 788
-6 103 781
-6 103 783
-5 103 780
-5 103 781
-5 103 782
-4 103 780
-3 105 797
-3 105 798
-3 106 799
-4 106 809
-2 106 802
-5 112 854
-14 116 903
0 110 831
0 101 764
0 101 765
0 101 766
1 101 764
1 101 765
2 101 766
2 101 764
2 101 768
3 101 766
1 102 778
4 101 764
4 101 765
5 101 766
6 101 764
6 101 762
6 99 749
7 99 750
7 99 751
8 99 748
8 99 749
8 99 750
7 100 761
4 101 778
10 99 749
11 99 748
11 99 749
12 99 747
12 99 748
12 99 749
12 99 750
13 99 747
12 99 755
12 100 759
15 98 744
10 101 773
21 96 720
22 96 717
22 96 718
20 99 746
20 97 733
21 97 731
25 104 779
31 125 931
25 88 656
19 69 517
24 89 669
24 89 670
26 90 674
26 91 681
26 91 682
0 100 804
0 101 805
22 92 696
22 92 697
-18 110 917
35 83 604
37 85 624
37 87 634
30 91 680
30 91 681
31 91 677
30 91 683
31 91 684
31 91 685
31 91 686
31 91 687
32 91 688
40 88 642
40 88 643
40 88 644
41 88 645
35 91 680
35 91 681
36 90 677
36 91 682
36 91 683
36 91 684
36 91 685
37 91 686
39 90 675
39 90 676
39 90 676
40 90 677
40 90 678
40 91 679
40 91 680
41 90 676
42 90 677
41 91 683
41 91 683
42 91 684
42 91 685
42 91 685
39 89 674
31 93 723
40 88 666
42 92 703
45 87 657
45 87 655
46 87 656
46 87 657
47 91 683
13 105 867
39 90 700
43 88 677
28 99 796
49 86 646
49 86 647
51 88 661
51 88 661
51 88 662
53 91 686
54 91 687
54 91 688
54 91 689
53 92 701
42 99 785
22 111 930
-23 89 534
-114 96 724
-124 111 826
-123 111 827
-123 111 829
-123 111 830
-123 111 831
-123 112 833
-123 112 834
-123 112 835
-123 112 837
-120 111 829
-120 111 831
-124 113 845
-124 113 847
-114 110 818
-117 111 827
-117 111 829
-117 111 830
-117 111 831
-128 115 869
-130 116 880
-117 113 843
-117 113 845
-95 107 777
-95 107 778
-97 109 795
-63 99 688
-19 87 549
-41 93 619
-40 93 620
-128 132 983
-128 132 984
-107 111 833
-100 109 813
-119 132 981
-116 131 970
-98 109 813
-98 109 814
-98 109 815
-101 110 827
-107 112 847
-95 109 811
-95 109 812
-95 109 813
-94 109 810
-92 107 795
-93 109 813
-93 109 814
-92 109 811
-90 107 796
-92 109 814
-93 108 808
-93 108 810
-94 110 828
-86 108 803
-85 106 788
-87 107 797
-87 107 798
-87 109 812
-87 109 813
-87 109 814
-88 110 820
-88 110 821
-85 109 814
-91 109 824
-77 107 800
-78 108 805
-79 108 812
-79 108 813
-74 107 798
-74 107 799
-74 107 800
-73 107 801
-71 107 795
-73 107 804
-73 108 805
-70 107 795
-69 107 796
-69 107 797
-69 107 799
-60 104 769
-60 104 770
-46 100 722
-66 107 796
-11 89 597
-11 90 605
-65 109 808
-66 109 813
-65 109 810
-64 109 811
-75 131 972
-66 108 808
-61 109 812
-61 109 813
-61 109 817
-61 109 818
-59 109 813
-61 110 821
-71 108 824
-71 108 825
-57 103 776
-66 106 810
-71 108 830
-70 108 831
-70 108 833
-52 103 767
-52 103 768
-52 103 770
-52 103 771
-51 103 772
-51 103 773
-51 103 774
-69 109 844
-69 109 845
-50 104 779
-50 104 780
-50 104 781
-50 104 782
-50 104 784
-89 117 935
-107 124 1015
-67 111 863
-88 118 947
-82 116 927
-66 111 869
-48 105 798
-39 103 768
-37 102 758
-38 102 766
-38 103 767
-38 103 768
-37 102 766
-37 103 767
-37 105 783
-38 105 788
-36 105 782
-46 106 812
-46 107 813
-64 113 890
-29 103 768
-29 103 769
-47 110 850
-42 108 831
-24 102 759
-26 103 768
-26 103 769
-26 103 770
-24 103 768
-24 103 769
-25 103 773
-25 103 777
-23 103 768
-25 104 779
-25 104 781
-21 102 766
-20 102 762
-19 102 763
-20 103 768
-20 103 769
-19 103 770
-21 103 779
-21 104 780
-21 104 781
-20 104 782
-22 105 794
-98 134 1134
-98 134 1136
-101 136 1155
-87 131 1093
-62 121 983
18 83 575
18 83 576
0 31 228
0 31 227
-8 29 229
-11 103 774
-12 103 779
-12 103 780
-8 104 783
-8 104 784
-6 103 778
-6 103 779
-5 103 776
-5 104 781
-4 103 775
-3 103 776
-3 103 777
-3 103 778
-4 104 788
-2 103 781
-5 105 797
-13 109 840
0 103 777
0 103 774
0 103 775
0 103 777
0 104 781
1 103 775
2 103 776
3 103 774
2 105 794
3 105 795
2 111 839
5 109 822
5 109 824
5 101 758
5 101 760
5 101 764
7 101 758
7 101 759
7 101 760
8 101 758
8 101 759
8 101 764
7 102 772
10 101 758
10 101 759
11 101 758
10 99 747
12 99 742
12 99 743
12 99 744
13 98 742
13 99 743
13 99 744
12 100 754
13 99 753
15 98 740
35 89 638
21 96 713
22 96 714
20 97 728
22 96 716
20 97 730
23 96 718
22 97 723
25 105 781
24 89 666
21 76 563
26 90 671
25 91 677
26 91 675
26 91 676
27 91 677
21 91 692
28 89 659
28 89 662
35 83 601
37 87 630
37 87 631
29 91 677
31 90 672
40 87 639
40 88 640
40 88 640
40 88 641
35 91 676
36 90 672
36 90 673
35 91 679
36 91 680
36 91 680
36 91 681
36 91 682
39 90 671
39 90 672
39 90 673
39 90 674
40 90 675
40 90 675
41 90 672
41 90 673
41 90 674
41 91 679
41 91 680
41 91 681
43 90 674
42 91 681
41 92 694
12 107 875
11 101 824
46 90 675
46 90 675
44 87 654
45 87 652
45 87 653
47 91 679
48 90 677
34 94 730
-16 121 1064
16 104 861
-19 123 1090
48 86 643
48 86 644
50 87 655
50 87 656
50 87 657
50 88 658
51 88 659
51 88 659
51 88 660
51 88 661
53 87 656
47 91 697
20 106 880
-23 89 532
-140 113 838
-114 96 719
-123 111 820
-123 111 822
-123 111 823
-123 111 824
-123 111 826
-122 111 827
-122 111 828
-122 112 830
-119 111 822
-119 111 824
-119 111 825
-124 112 840
-123 113 841
-113 110 812
-116 111 822
-116 111 823
-116 111 825
-116 111 826
-116 111 827
-129 115 873
-117 112 839
-116 112 840
-94 106 773
-94 107 774
-94 107 775
-63 98 679
-19 85 539
-19 86 540
-40 93 618
-97 97 726
-113 118 877
-127 132 980
-119 131 967
-117 130 963
-101 111 824
-104 114 848
-102 113 840
-101 113 842
-101 114 843
-105 119 882
-109 120 896
-115 122 919
-102 118 877
-102 119 878
-102 119 880
-99 116 858
-98 116 859
-109 130 965
-111 131 973
-107 130 963
-107 130 965
-91 109 809
-94 110 820
-94 110 821
-94 110 822
-88 109 806
-88 109 807
-104 131 967
-81 100 744
-86 109 806
-86 109 808
-81 101 751
-79 100 745
-85 109 807
-85 109 809
-85 109 810
-102 132 982
-79 108 805
-78 108 807
-78 108 808
-73 107 792
-73 107 794
-73 107 795
-73 107 796
-73 107 797
-71 107 791
-70 107 793
-70 107 794
-69 107 791
-69 107 792
-69 107 793
-69 107 795
-60 104 765
-62 105 774
-44 100 713
-64 106 784
-64 106 785
-64 106 790
-64 107 791
-63 106 789
-64 109 806
-64 109 807
-64 109 809
-65 108 804
-58 103 763
-60 107 795
-58 106 790
-59 109 808
-59 109 809
-58 107 794
-64 109 818
-73 112 856
-68 111 839
-73 113 859
-70 108 829
-70 108 830
-52 103 765
-51 103 766
-51 103 767
-51 103 768
-69 109 837
-69 109 838
-69 109 839
-68 109 841
-50 103 774
-50 104 775
-50 104 776
-46 104 777
-50 106 794
-50 106 796
-106 124 1009
-48 105 788
-44 103 773
-48 105 791
-88 122 971
-37 104 768
-39 104 776
-38 104 778
-38 105 779
-37 104 776
-37 104 777
-37 105 778
-37 105 780
-35 104 777
-35 105 778
-35 105 779
-46 109 826
-65 116 905
-52 111 861
-31 104 776
-42 108 826
-26 102 763
-26 102 764
-25 103 765
-24 102 763
-24 102 764
-25 103 769
-23 102 763
-23 102 764
-25 103 775
-25 103 776
-21 102 762
-19 102 757
-19 102 759
-20 102 763
-20 105 779
-19 102 762
-19 103 767
-17 102 761
-20 103 776
-20 104 777
-20 104 779
-20 104 780
-108 138 1178
-108 139 1181
-86 130 1086
-22 98 744
18 83 573
-25 27 242
-12 103 768
-12 105 788
-12 105 789
-12 105 790
-17 108 815
-8 104 779
-6 103 773
-6 103 774
-5 103 771
-5 103 776
-4 103 770
-3 103 771
-3 103 772
-3 103 774
-3 103 775
-3 103 776
-7 105 800
-13 108 834
0 103 772
0 103 773
0 103 771
0 103 772
1 103 769
1 103 770
2 103 771
3 103 769
3 103 770
2 103 775
3 103 776
4 103 769
5 103 770
5 103 768
6 103 770
6 105 789
7 105 783
8 109 817
8 105 786
9 105 783
10 109 817
9 110 822
8 110 831
11 109 815
12 109 816
12 109 815
11 100 754
11 101 757
12 100 753
12 100 754
13 100 751
14 100 752
14 100 754
12 101 764
13 101 765
16 100 750
16 100 753
17 100 748
31 93 674
22 98 724
23 98 725
23 98 726
21 99 740
23 98 732
23 98 733
26 107 792
22 93 700
28 90 669
28 89 658
36 85 617
11 37 276
29 91 672
38 90 667
39 90 668
39 90 669
39 90 670
39 90 671
40 90 672
41 90 668
41 90 669
41 90 670
41 91 675
41 91 676
41 91 677
43 90 671
42 91 677
32 96 741
12 107 868
22 96 758
48 89 654
47 89 661
46 90 670
46 90 671
47 90 671
47 90 672
48 90 670
36 97 754
-37 130 1177
35 94 730
24 100 804
11 107 888
48 86 640
51 90 674
50 87 653
50 87 654
50 87 654
50 87 655
51 88 656
51 88 657
51 88 658
52 87 653
47 91 693
19 106 874
-22 84 503
-120 96 712
-131 112 837
-131 112 838
-119 110 805
-122 110 815
-122 111 816
-122 111 818
-122 111 819
-120 111 816
-122 111 822
-122 111 823
-122 111 824
-119 111 817
-119 111 818
-119 111 820
-123 112 834
-113 110 805
-113 110 807
-115 111 816
-115 111 818
-115 111 819
-115 111 820
-115 111 822
-125 114 860
-128 115 871
-128 116 872
-128 116 874
-94 106 769
-94 106 771
-94 107 772
-63 98 676
-19 85 538
-20 86 541
-19 86 542
-38 82 546
-108 113 836
-126 132 974
-101 111 818
-101 111 819
-102 111 825
-99 111 817
-99 111 819
-99 111 820
-102 112 832
-102 112 833
-107 114 850
-96 111 817
-96 111 818
-96 111 819
-94 111 816
-95 111 822
-94 111 819
-95 111 825
-92 111 817
-92 111 819
-92 111 820
-95 112 831
-95 112 833
-119 119 914
-90 111 817
-91 113 836
-89 111 820
-89 113 834
-89 113 835
-87 111 819
-89 111 825
-88 113 835
-87 113 836
-91 118 874
-99 130 961
-99 131 963
-102 132 976
-78 108 800
-78 108 801
-78 108 803
-73 106 787
-73 107 789
-73 107 790
-73 107 791
-72 107 792
-72 107 793
-118 121 953
-74 108 805
-77 109 814
-70 107 791
-70 107 792
-68 107 790
-60 104 761
-62 105 769
-59 104 763
-44 100 710
-47 101 723
-64 108 797
-65 109 802
-64 108 800
-64 108 801
-64 109 802
-74 130 959
-74 130 960
-61 108 800
-66 98 746
-58 106 785
-58 106 786
-57 106 784
-56 106 785
-57 107 790
-57 103 766
-68 110 833
-73 112 853
-72 113 859
-72 113 860
-52 106 785
-53 107 792
-53 107 793
-52 107 794
-71 114 867
-71 114 869
-71 114 872
-52 108 800
-51 108 802
-51 108 803
-47 106 788
-51 108 805
-51 108 807
-51 108 808
-69 115 884
-69 115 885
-110 130 1054
-45 107 800
-49 109 818
-86 118 944
-38 102 758
-39 109 805
-38 108 803
-38 109 804
-37 104 774
-36 104 775
-35 104 772
-35 104 773
-35 104 774
-35 105 776
-35 105 777
-64 116 900
-64 116 902
-45 109 828
-61 117 914
-104 131 1087
-104 131 1089
-26 104 775
-25 104 773
-25 105 778
-23 104 771
-23 104 773
-23 104 774
-25 105 785
-24 103 771
-21 102 757
-20 104 767
-19 104 769
-20 104 773
-19 104 771
-19 104 772
-19 104 773
-19 105 778
-17 104 772
-20 105 788
-20 106 789
-20 104 775
-20 104 776
-90 121 1021
-8 28 221
-8 101 749
-12 105 783
-12 110 816
-11 109 814
-11 109 815
-11 110 820
-14 109 823
-9 106 800
-6 105 786
-5 103 771
-4 103 765
-3 103 766
-3 103 768
-3 103 769
-3 103 770
-3 103 771
-7 105 795
-13 108 828
0 103 767
0 103 765
0 103 766
0 103 767
1 102 764
1 103 766
1 103 767
2 102 764
3 103 765
2 103 770
1 104 779
4 102 764
4 103 766
5 102 764
6 102 765
6 102 762
7 102 763
7 102 765
7 103 766
8 102 763
8 102 764
8 103 769
7 103 777
4 105 794
11 104 779
11 104 778
11 102 764
11 103 767
13 104 777
13 104 779
14 109 812
15 109 809
15 109 810
15 109 815
14 110 824
17 108 808
16 100 748
16 100 749
17 100 745
12 102 775
22 98 721
23 98 721
23 98 722
23 98 723
23 98 728
23 98 729
31 104 758
63 192 1390
36 125 920
26 94 692
27 97 719
30 105 776
33 129 959
36 87 623
40 93 666
41 91 672
41 91 673
41 91 673
42 91 673
32 96 736
40 90 678
48 89 651
48 89 652
47 88 644
45 88 656
46 89 657
46 89 657
47 90 667
48 90 667
48 90 668
47 91 675
44 93 699
44 93 700
36 98 759
33 95 737
50 88 654
21 44 331
24 48 365
51 90 671
51 90 672
52 90 672
52 90 673
52 90 674
52 91 675
53 91 676
53 91 677
54 90 671
48 94 714
21 110 908
-22 84 500
-134 111 812
-132 114 844
-130 112 831
-130 112 833
-119 109 800
-121 110 810
-121 110 811
-121 110 812
-121 111 813
-120 110 811
-123 113 833
-123 113 835
-123 113 836
-120 113 829
-120 113 830
-124 114 845
-124 114 846
-114 112 817
-112 109 802
-117 113 828
-117 113 829
-117 113 831
-115 113 828
-117 113 833
-117 113 835
-120 113 836
-129 115 868
-114 112 824
-133 117 885
-104 109 798
-93 106 767
-93 106 768
-60 97 668
-70 100 698
-19 86 540
-18 85 535
-37 82 542
-96 97 720
-115 119 882
-37 32 249
-166 188 1369
-100 110 812
-100 111 814
-99 110 811
-98 110 812
-98 111 813
-98 111 815
-101 112 826
-101 112 828
-106 113 845
-95 110 811
-95 111 813
-95 111 814
-94 110 811
-94 110 812
-93 111 814
-95 111 819
-92 110 812
-92 111 813
-95 112 824
-95 112 826
-102 114 852
-94 112 828
-89 110 812
-89 111 813
-111 118 891
-89 111 816
-89 111 817
-87 111 814
-86 110 811
-85 110 812
-85 111 813
-85 111 815
-89 114 843
-90 118 871
-90 119 873
-101 132 970
-80 112 830
-85 120 887
-80 118 868
-79 118 870
-84 127 933
-84 127 934
-72 107 787
-71 100 744
-73 109 806
-71 109 799
-71 109 801
-71 109 802
-72 110 811
-77 111 830
-76 111 827
-67 108 795
-61 105 765
-59 104 759
-44 101 719
-48 103 734
-64 108 793
-63 108 794
-63 108 796
-63 108 797
-74 130 951
-73 130 953
-61 108 795
-61 108 796
-61 108 797
-59 100 743
-57 106 783
-57 108 796
-66 129 950
-58 107 792
-67 110 828
-72 112 849
-72 112 850
-71 113 854
-51 106 780
-53 107 787
-52 107 788
-71 113 860
-70 113 863
-68 109 829
-50 103 764
-50 103 765
-45 102 752
-47 106 782
-47 106 784
-46 106 785
-46 106 786
-50 108 804
-50 108 805
-50 108 806
-45 107 791
-45 107 792
-109 130 1049
-38 106 784
-37 106 782
-37 106 783
-37 106 784
-37 106 785
-36 106 783
-38 107 795
-34 106 780
-31 105 771
-31 105 772
-35 107 789
-46 111 836
-66 121 939
-25 105 775
-104 130 1077
-103 131 1080
-25 102 756
-25 104 768
-25 102 758
-23 104 767
-23 104 768
-23 104 769
-25 105 780
-25 105 781
-21 104 767
-20 104 763
-19 104 764
-20 104 768
-19 104 766
-19 104 767
-18 104 768
-18 104 769
-17 104 767
-17 104 768
-17 104 769
-20 105 785
-20 106 786
-96 123 1039
-9 95 703
-9 101 743
9 93 659
-12 99 735
-12 109 811
-11 109 808
-11 109 810
-11 109 811
-10 109 808
-15 109 828
-5 105 782
-4 104 775
-3 105 777
-3 105 778
-3 105 779
-3 105 780
-2 105 781
-14 110 839
-13 110 840
0 103 762
0 102 760
0 102 761
0 103 766
1 102 760
1 102 761
1 102 762
2 102 759
3 102 761
