-13 303 1040
-8 296 1016
-9 298 1023
-8 297 1020
-7 298 1022
-7 298 1024
-7 299 1026
-6 299 1028
-5 298 1024
-5 299 1026
-4 298 1021
-3 298 1023
-3 299 1025
-5 303 1041
2 291 994
-1 298 1023
0 297 1021
0 298 1023
0 298 1025
0 299 1027
0 299 1029
1 271 933
2 270 929
2 271 931
3 271 932
1 274 945
1 275 947
5 270 929
5 270 928
6 271 930
6 271 932
6 271 934
7 272 935
8 271 932
8 271 933
9 270 930
9 271 931
10 271 933
8 274 946
8 269 926
32 228 767
31 231 777
13 271 931
13 271 932
13 271 934
14 272 936
15 271 932
16 270 928
16 270 930
17 271 932
15 274 944
16 274 946
16 275 950
19 270 929
20 270 929
20 270 931
20 271 933
21 271 935
21 272 937
22 271 933
23 270 929
23 270 931
24 271 932
23 274 945
23 274 947
23 275 949
24 275 950
30 264 908
27 270 932
27 271 933
26 259 895
27 259 891
28 259 893
29 258 890
29 258 891
29 259 893
28 262 904
31 258 891
31 259 892
29 263 909
32 258 890
33 258 891
33 259 893
33 259 894
34 258 892
35 257 888
35 258 890
36 258 891
36 259 893
35 261 904
37 258 891
38 258 892
36 262 908
46 242 829
38 252 872
40 258 892
40 259 893
43 270 931
44 269 927
49 295 1018
63 365 1260
63 371 1281
53 241 833
51 247 853
51 246 853
52 247 855
53 246 851
53 246 853
53 247 854
53 249 862
54 246 852
55 246 854
54 250 866
54 250 868
55 250 869
57 246 850
57 246 852
58 246 852
58 245 849
59 245 850
59 246 852
60 246 853
59 248 860
61 246 851
60 241 836
60 249 865
59 244 849
60 245 850
60 245 851
60 245 853
-175 267 887
-219 375 1272
-219 376 1276
-220 377 1279
-211 370 1254
-211 371 1257
-208 369 1250
-208 370 1254
-209 371 1257
-209 372 1260
-206 370 1253
-212 382 1295
-209 380 1288
-209 381 1291
-210 382 1295
-216 389 1320
-216 391 1326
-217 391 1329
-192 368 1243
-204 381 1290
-204 382 1293
-185 353 1192
-188 356 1205
-190 359 1217
-188 357 1211
-188 358 1214
-188 359 1217
-194 365 1239
-186 358 1213
-186 359 1216
-183 357 1208
-183 357 1211
-183 358 1214
-183 359 1217
-178 355 1202
-181 358 1215
-178 357 1208
-178 357 1211
-178 358 1214
-176 356 1208
-183 365 1238
-176 358 1214
-183 366 1245
-144 327 1098
-173 357 1210
-173 358 1213
-164 344 1166
-166 347 1178
-164 346 1172
-164 346 1175
-164 347 1178
-173 362 1231
-166 356 1208
-166 357 1211
-183 388 1319
-178 377 1282
-167 366 1242
-167 367 1245
-163 364 1233
-166 368 1246
-164 366 1239
-168 378 1281
-168 379 1284
-172 384 1304
-172 385 1307
-166 379 1284
-173 387 1314
-173 388 1318
-151 365 1233
-162 377 1279
-158 374 1268
-161 378 1282
-158 376 1275
-158 377 1278
-158 378 1282
-162 383 1299
-145 341 1158
-139 336 1140
-145 342 1163
-144 343 1166
-144 343 1169
-135 335 1136
-133 333 1129
-135 336 1140
-133 334 1134
-133 335 1136
-133 335 1139
-135 339 1152
-135 339 1154
-131 335 1139
-135 341 1160
-135 342 1162
-135 342 1165
-76 278 922
-78 281 934
-126 335 1138
-124 333 1132
-124 334 1134
-124 335 1137
-120 331 1123
-120 332 1126
-122 335 1137
-120 333 1131
-120 334 1134
-119 334 1136
-119 335 1139
-112 327 1109
-117 334 1134
-115 333 1130
-115 333 1133
-115 334 1135
-111 330 1121
-108 322 1094
-110 325 1105
-111 332 1129
-111 333 1132
-111 334 1134
-111 334 1137
-110 335 1140
-100 324 1098
-107 332 1128
-106 333 1131
-106 333 1133
-106 334 1136
-102 330 1122
-104 333 1133
-104 334 1136
-102 332 1130
-102 333 1133
-97 316 1076
-97 317 1079
-94 315 1070
-94 315 1072
-93 315 1071
-93 315 1073
-93 316 1076
-89 313 1063
-91 315 1073
-91 316 1075
-89 315 1070
-89 315 1073
-89 316 1075
-88 316 1077
-88 317 1080
-63 288 968
-73 300 1014
-85 315 1072
-85 316 1074
-81 312 1062
-81 313 1064
-82 315 1074
-81 314 1069
-81 315 1071
-79 307 1046
-78 308 1049
-78 308 1051
-84 322 1098
-77 314 1068
-76 314 1070
-76 315 1073
-85 368 1252
-85 369 1255
-86 373 1268
-84 371 1261
-84 372 1264
-84 373 1268
-84 373 1271
-84 374 1274
-88 381 1300
-87 382 1302
-72 360 1222
-79 372 1267
-79 373 1270
-75 368 1253
-77 372 1266
-75 370 1259
-75 371 1262
-74 372 1265
-74 373 1269
-61 300 1022
-59 298 1018
-59 299 1020
-57 298 1014
-57 298 1016
-57 299 1018
-54 296 1009
-56 298 1017
-55 299 1019
-54 298 1015
-54 298 1017
-53 299 1019
-53 299 1021
-55 303 1035
-51 299 1019
-55 304 1040
7 219 711
-19 258 862
-47 296 1007
-47 296 1009
-48 298 1018
-46 297 1014
-46 298 1016
-46 298 1018
-45 299 1020
-45 299 1022
-44 298 1017
-47 303 1037
-47 304 1039
-41 297 1014
-41 298 1016
-39 296 1008
-40 298 1017
-40 298 1019
-38 297 1014
-38 298 1016
-38 298 1019
-38 299 1021
-36 298 1016
-36 298 1018
-39 303 1037
-38 303 1039
-28 290 988
-31 295 1007
-32 297 1016
-32 298 1018
-31 297 1013
-30 297 1015
-30 298 1017
-30 298 1019
-30 299 1021
-28 298 1017
-31 302 1034
-30 303 1037
-30 303 1039
-23 281 960
-23 281 961
-24 283 969
-22 282 965
-22 283 967
-22 283 969
-22 284 971
-21 284 973
-20 283 969
-20 284 970
-22 287 985
-22 288 987
-21 288 989
-4 264 896
-16 283 968
-16 283 970
-15 282 966
-15 283 968
-14 283 970
-14 284 972
-12 281 962
-13 283 969
-11 282 965
-11 283 967
-11 283 969
-12 286 983
-8 281 961
-9 283 968
-8 282 965
-7 296 1014
-7 297 1016
-7 297 1018
-6 298 1020
-5 297 1015
-4 295 1011
-4 296 1013
-3 296 1015
-3 297 1017
-5 301 1032
2 289 987
-1 296 1015
0 296 1012
0 296 1015
0 297 1017
0 297 1019
0 298 1021
2 296 1016
3 295 1012
3 296 1014
4 296 1016
2 300 1031
2 301 1033
6 295 1012
7 295 1011
7 296 1013
7 296 1015
6 270 927
6 270 929
8 269 925
8 270 927
9 269 923
9 269 925
10 270 926
8 273 939
8 274 943
33 231 776
29 239 805
13 269 924
13 270 926
13 270 927
14 270 929
15 269 925
16 268 922
16 269 923
16 269 925
15 272 938
15 273 939
16 274 943
19 268 921
20 269 923
20 269 925
20 269 926
20 270 928
21 270 930
22 269 926
23 268 922
23 269 924
24 269 926
22 272 938
23 273 940
23 273 942
23 274 943
29 263 901
27 269 925
27 269 927
28 270 928
29 269 924
30 268 921
30 268 922
30 269 924
31 269 926
30 272 938
32 268 924
32 269 925
29 262 903
32 257 884
32 257 885
33 257 887
34 255 879
34 257 885
35 256 882
35 257 884
35 257 885
35 260 896
35 260 897
37 257 885
37 257 886
36 261 902
46 241 824
39 257 884
39 257 886
40 256 884
40 257 885
41 256 882
42 256 884
42 257 885
40 254 876
41 254 878
43 251 866
41 255 881
43 261 901
46 256 882
46 256 883
49 268 923
49 267 922
55 294 1012
70 360 1239
71 361 1242
71 361 1245
71 366 1264
54 248 860
54 249 862
54 249 863
57 244 845
57 245 846
57 245 847
58 244 844
58 244 845
59 245 846
59 245 848
59 247 855
60 244 846
61 245 847
60 248 859
60 248 860
61 248 862
61 249 863
58 249 867
-155 235 781
-217 372 1260
-217 373 1263
-209 368 1242
-209 368 1245
-195 346 1169
-206 367 1242
-201 363 1225
-207 369 1248
-204 367 1241
-204 368 1244
-201 366 1237
-201 367 1240
-202 368 1243
-207 374 1267
-208 375 1272
-208 376 1276
-185 355 1196
-197 367 1239
-197 367 1242
-203 380 1284
-200 378 1276
-200 379 1280
-197 377 1272
-197 377 1276
-197 378 1279
-203 385 1304
-195 377 1275
-195 378 1278
-191 376 1269
-192 377 1273
-181 356 1202
-181 356 1205
-179 355 1200
-179 356 1203
-177 354 1197
-177 355 1200
-177 356 1203
-174 354 1196
-174 355 1199
-174 355 1202
-182 363 1233
-143 325 1089
-171 354 1199
-171 355 1201
-167 352 1189
-170 355 1201
-167 353 1195
-167 354 1198
-167 355 1201
-171 360 1219
-165 354 1197
-165 355 1200
-167 352 1193
-167 352 1196
-157 343 1161
-157 344 1164
-153 341 1154
-156 344 1165
-153 343 1159
-158 353 1195
-158 354 1198
-171 381 1291
-171 382 1294
-164 376 1271
-171 384 1301
-171 384 1304
-150 362 1221
-160 374 1266
-157 371 1256
-159 375 1270
-157 373 1262
-157 374 1266
-157 375 1269
-160 380 1286
-160 380 1290
-154 375 1268
-160 382 1297
-160 383 1300
-143 341 1158
-150 373 1262
-147 371 1254
-149 374 1267
-147 372 1260
-132 332 1126
-147 374 1266
-134 336 1141
-134 337 1144
-130 333 1129
-134 338 1149
-134 339 1152
-134 340 1155
-75 277 915
-108 314 1056
-125 333 1128
-123 331 1122
-123 332 1125
-123 332 1127
-119 329 1113
-119 330 1116
-121 332 1127
-119 331 1121
-119 331 1124
-119 332 1126
-118 333 1129
-111 325 1099
-116 332 1124
-114 331 1120
-114 331 1123
-114 332 1125
-108 320 1083
-108 320 1085
-109 323 1095
-110 330 1119
-110 331 1122
-110 332 1124
-110 332 1127
-110 333 1130
-100 322 1089
-103 321 1089
-103 322 1092
-103 322 1094
-102 328 1110
-102 328 1113
-103 331 1123
-101 330 1118
-101 330 1120
-101 331 1123
-101 332 1125
-101 332 1128
-98 330 1118
-98 330 1121
-97 330 1119
-97 331 1122
-97 331 1124
-93 328 1111
-95 330 1121
-94 331 1124
-93 330 1118
-92 330 1121
-88 314 1066
-88 314 1068
-91 319 1085
-63 286 961
-72 298 1006
-84 313 1063
-84 314 1065
-81 310 1053
-80 311 1055
-82 313 1065
-80 312 1060
-80 313 1062
-80 313 1064
-80 314 1067
-79 314 1069
-83 319 1089
-76 312 1059
-76 312 1061
-76 313 1064
-73 310 1052
-72 310 1054
-74 313 1063
-72 312 1059
-72 312 1061
-72 313 1063
-75 330 1123
-75 331 1125
-87 378 1287
-86 378 1289
-71 358 1211
-78 369 1254
-78 370 1257
-75 366 1241
-76 369 1254
-74 367 1247
-74 368 1250
-74 369 1253
-74 370 1256
-73 370 1259
-71 369 1253
-77 378 1286
-69 367 1247
-69 368 1251
-68 369 1254
-65 365 1239
-67 368 1252
-66 369 1255
-53 296 1007
-53 296 1009
-53 297 1011
-53 297 1013
-51 296 1009
-51 297 1011
-55 302 1031
7 218 707
-19 257 856
-46 294 1000
-46 294 1002
-47 297 1010
-46 295 1006
-46 296 1008
-45 296 1010
-45 297 1012
-45 297 1014
-43 296 1009
-47 301 1029
-46 302 1031
-41 295 1006
-39 293 998
-39 294 1000
-40 296 1009
-38 295 1004
-38 295 1006
-38 296 1009
-38 296 1011
-37 297 1013
-36 296 1008
-36 296 1010
-38 301 1029
-38 302 1031
-28 288 980
-31 293 999
-32 296 1008
-32 296 1010
-30 295 1005
-30 295 1007
-30 296 1009
-30 296 1011
-29 297 1013
-28 296 1009
-31 300 1026
-30 301 1028
-30 301 1030
-24 293 998
-23 293 1000
-24 296 1008
-23 294 1004
-23 295 1006
-22 295 1008
-22 296 1010
-22 296 1012
-21 295 1008
-23 299 1024
-22 300 1026
-22 300 1028
-21 287 982
-4 263 889
-16 281 961
-16 282 963
-15 281 959
-15 281 961
-14 282 962
-14 282 964
-12 280 955
-12 282 962
-11 281 958
-11 281 960
-11 281 962
-12 285 975
-8 279 954
-9 281 961
-8 280 958
-7 281 960
-7 281 961
-7 282 963
-7 282 965
-5 281 961
-4 280 957
-4 281 959
-4 281 961
-3 295 1009
-5 299 1024
2 287 979
-1 294 1007
0 294 1005
0 294 1007
0 295 1009
0 295 1011
0 296 1013
2 295 1008
3 294 1004
3 294 1006
3 295 1008
2 298 1023
2 299 1025
6 294 1004
6 293 1003
7 294 1005
7 294 1007
7 295 1009
8 295 1011
9 294 1007
9 295 1009
11 294 1005
11 294 1007
11 295 1009
10 298 1023
8 273 936
32 230 772
24 247 836
13 268 917
13 268 919
13 269 921
13 269 922
15 268 919
16 267 915
16 267 917
16 268 919
15 271 931
15 271 933
15 272 936
19 267 915
19 267 916
20 268 918
20 268 920
20 268 921
21 268 918
22 268 919
23 267 916
23 267 917
23 268 919
22 271 931
22 271 933
23 272 936
23 272 936
29 262 895
27 267 918
27 268 920
27 268 922
28 267 918
29 266 914
30 267 916
30 267 918
30 268 919
29 271 932
32 267 917
32 267 919
30 272 937
33 267 916
34 267 917
34 267 919
36 265 911
35 267 918
36 266 914
37 267 916
37 267 918
34 258 890
35 259 891
37 256 879
35 259 894
45 240 817
45 240 818
39 255 878
39 256 880
40 255 878
40 256 879
41 255 876
41 255 877
42 255 879
41 258 889
41 258 890
43 255 879
42 259 893
42 259 895
45 254 876
45 255 877
46 255 879
46 255 878
47 255 879
48 254 876
48 255 877
48 255 879
48 257 888
50 255 877
50 255 878
49 258 892
49 259 894
62 283 970
77 345 1184
76 357 1229
77 357 1228
78 355 1221
58 246 849
60 243 840
60 244 842
59 247 853
60 247 855
60 247 856
61 248 857
39 289 1026
-180 275 912
-222 381 1286
-222 382 1289
-191 335 1130
-213 377 1271
-210 375 1264
-211 376 1267
-205 371 1249
-211 377 1273
-208 376 1266
-208 376 1270
-200 363 1225
-200 364 1228
-200 365 1232
-206 371 1255
-206 373 1260
-206 373 1263
-184 352 1185
-200 375 1264
-195 365 1230
-195 365 1233
-192 364 1227
-192 364 1230
-190 363 1223
-190 363 1226
-190 364 1229
-196 370 1252
-187 363 1225
-187 364 1229
-190 373 1257
-190 374 1260
-190 374 1263
-190 375 1267
-188 374 1261
-188 375 1265
-185 373 1257
-185 374 1261
-185 375 1264
-191 381 1287
-183 373 1260
-183 374 1263
-149 340 1136
-142 323 1080
-170 352 1187
-170 352 1190
-168 352 1187
-168 352 1190
-166 351 1184
-166 351 1186
-166 352 1189
-170 357 1208
-163 351 1186
-163 352 1189
-170 359 1217
-160 350 1181
-160 351 1184
-160 351 1187
-159 351 1185
-159 352 1188
-156 350 1181
-156 351 1184
-156 351 1187
-160 356 1204
-154 350 1184
-154 351 1187
-160 358 1213
-160 359 1216
-141 340 1143
-150 350 1183
-149 350 1183
-149 351 1185
-147 349 1179
-147 350 1182
-147 351 1185
-159 377 1274
-159 377 1277
-153 372 1256
-159 379 1284
-159 380 1287
-154 369 1251
-144 359 1214
-148 370 1251
-148 371 1255
-146 369 1248
-145 370 1251
-145 371 1254
-148 375 1269
-148 376 1273
-143 371 1254
-148 378 1279
-148 379 1283
-148 380 1286
-81 302 995
-119 347 1164
-138 370 1252
-136 369 1245
-136 369 1249
-136 370 1252
-118 327 1104
-118 327 1106
-120 330 1117
-118 329 1111
-118 329 1114
-118 330 1116
-117 331 1119
-110 323 1090
-115 329 1115
-113 328 1110
-113 329 1113
-113 330 1116
-109 326 1102
-109 327 1105
-111 329 1115
-109 328 1110
-109 329 1112
-109 329 1115
-109 330 1117
-95 315 1059
-99 320 1079
-102 319 1080
-102 320 1082
-102 320 1085
-101 325 1101
-101 326 1103
-102 329 1113
-101 327 1108
-100 328 1110
-100 329 1113
-100 329 1115
-100 330 1118
-97 327 1109
-96 327 1107
-96 328 1110
-96 328 1112
-96 329 1115
-92 325 1101
-94 328 1112
-92 327 1106
-92 327 1109
-92 328 1111
-92 329 1114
-91 329 1116
-96 335 1139
-65 299 999
-88 327 1108
-87 328 1110
-87 328 1113
-84 325 1100
-85 328 1110
-81 311 1056
-80 310 1051
-79 311 1053
-79 311 1056
-79 312 1058
-79 312 1060
-82 317 1079
-76 310 1051
-75 310 1053
-75 311 1055
-72 308 1043
-72 308 1045
-73 311 1055
-72 310 1050
-71 310 1052
-71 311 1054
-71 311 1057
-71 312 1059
-74 317 1077
-73 317 1078
-61 302 1023
-67 310 1054
-64 307 1042
-64 308 1044
-65 310 1053
-64 309 1049
-63 310 1051
-63 310 1053
-63 311 1055
-63 311 1057
-64 327 1109
-76 375 1274
-68 364 1235
-68 365 1238
-68 366 1242
-65 362 1227
-66 365 1240
-66 366 1243
-64 364 1236
-64 365 1239
-63 366 1242
-63 367 1245
-61 365 1239
-61 366 1242
-66 374 1273
9 250 807
-30 321 1072
-55 361 1225
-46 293 994
-47 295 1002
-46 294 998
-45 294 1000
-45 295 1002
-45 295 1004
-45 296 1006
-43 295 1002
-46 299 1021
-46 300 1023
-41 294 998
-39 292 991
-38 292 993
-39 294 1001
-38 293 997
-38 294 999
-38 294 1001
-37 295 1003
-37 295 1005
-36 294 1000
-35 295 1002
-38 299 1020
-38 300 1022
-28 287 973
-31 292 992
-32 294 1000
-32 294 1002
-30 293 998
-30 294 1000
-30 294 1002
-30 295 1004
-28 294 999
-28 294 1001
-30 298 1018
-30 299 1020
-30 299 1022
-24 291 991
-23 292 992
-24 294 1001
-23 293 996
-23 293 998
-22 294 1000
-22 294 1002
-22 295 1004
-20 294 1000
-23 298 1016
-22 298 1018
-22 299 1020
-3 270 910
-4 273 922
-17 293 1000
-16 294 1001
-15 293 997
-15 293 999
-15 294 1001
-14 294 1003
-13 293 999
-13 294 1001
-11 279 951
-11 279 953
-11 280 955
-12 283 968
-8 278 947
-9 280 954
-8 279 951
-7 279 952
-7 280 954
-7 280 956
-7 281 958
-5 280 954
-4 279 950
-4 279 952
-4 279 954
-3 280 955
-5 283 969
1 273 929
-1 279 953
0 279 951
0 279 953
0 280 955
0 280 957
0 282 962
1 280 955
2 279 951
2 279 953
3 293 1000
2 297 1015
2 297 1017
6 292 997
6 292 996
7 292 997
7 293 999
7 293 1001
8 294 1003
9 292 999
10 291 995
10 292 997
11 292 999
11 293 1001
10 297 1015
9 298 1021
35 247 826
26 267 902
14 292 998
15 293 1000
15 293 1002
15 293 1004
17 292 1000
18 291 995
18 292 997
16 267 912
15 270 924
15 270 926
15 271 929
19 265 908
19 266 910
19 266 911
20 267 913
20 267 915
21 266 911
21 267 913
22 266 909
23 266 911
23 266 912
22 269 925
22 270 926
22 271 929
29 260 887
26 266 910
26 266 912
27 267 913
27 267 915
28 266 911
29 265 908
29 265 909
30 266 911
30 266 913
29 269 925
31 266 911
32 266 912
33 265 908
33 265 909
33 266 911
34 266 913
35 264 905
35 266 911
36 265 908
36 265 909
37 266 911
36 268 922
36 269 924
38 265 911
37 270 927
47 248 844
47 249 846
40 265 910
41 266 912
42 265 910
42 265 911
41 253 870
41 254 872
41 254 873
41 257 883
41 257 884
43 254 873
42 258 887
42 258 889
45 253 870
45 254 871
45 254 873
46 254 872
47 253 868
47 253 870
48 253 871
48 254 873
47 256 882
49 253 871
49 254 872
48 257 886
49 258 888
53 247 848
54 248 850
51 248 854
51 248 854
52 247 850
53 248 852
53 248 853
53 248 854
53 250 862
56 253 870
56 253 871
58 268 923
64 294 1013
81 363 1249
83 352 1208
60 246 852
20 169 602
-179 274 906
-179 275 907
-213 367 1236
-220 379 1276
-220 380 1280
-200 352 1184
-197 350 1179
-197 351 1181
-209 373 1254
-203 368 1237
-209 374 1261
-206 373 1254
-206 373 1257
-203 372 1250
-204 372 1253
-204 373 1257
-210 380 1281
-210 381 1286
-210 382 1289
-187 360 1208
-199 372 1252
-199 373 1255
-199 374 1259
-191 361 1215
-191 362 1218
-188 360 1211
-188 361 1214
-188 361 1217
-194 368 1240
-186 360 1214
-186 361 1217
-183 359 1209
-188 371 1248
-183 361 1215
-183 361 1218
-181 360 1213
-181 361 1216
-178 359 1209
-178 360 1212
-178 361 1215
-183 366 1236
-176 360 1212
-181 371 1251
-148 338 1126
-148 339 1129
-178 370 1247
-178 371 1250
-176 370 1247
-176 371 1250
-174 369 1243
-174 370 1246
-174 371 1249
-178 376 1270
-171 370 1245
-162 349 1178
-168 357 1205
-158 347 1170
-158 348 1173
-158 349 1176
-157 348 1174
-157 349 1177
-155 347 1171
-155 348 1173
-155 349 1176
-158 353 1193
-153 348 1173
-153 349 1176
-158 356 1202
-158 356 1204
-140 337 1133
-149 348 1172
-148 348 1172
-148 348 1175
-146 347 1168
-146 347 1171
-146 348 1174
-149 352 1189
-143 347 1171
-143 348 1174
-149 354 1198
-149 355 1201
-149 356 1204
-139 346 1168
-139 347 1170
-139 348 1173
-144 367 1236
-144 367 1239
-144 368 1242
-147 372 1257
-147 373 1260
-138 357 1205
-143 364 1229
-147 376 1270
-147 376 1273
-80 300 988
-103 327 1088
-137 368 1240
-135 366 1233
-134 367 1237
-134 367 1240
-130 363 1223
-130 364 1226
-132 367 1239
-130 365 1232
-130 366 1235
-130 367 1239
-130 368 1242
-121 358 1206
-127 366 1236
-125 365 1231
-125 366 1234
-125 367 1237
-109 324 1093
-108 325 1095
-110 327 1105
-108 326 1100
-108 326 1103
-108 327 1105
-108 328 1108
-94 313 1050
-98 318 1070
-104 326 1099
-104 326 1102
-104 327 1104
-100 323 1091
-100 324 1094
-102 327 1104
-100 325 1098
-100 326 1101
-100 326 1103
-99 327 1106
-99 328 1108
-97 325 1099
-96 325 1098
-95 326 1100
-95 326 1103
-92 323 1090
-92 323 1092
-93 326 1102
-91 325 1097
-91 325 1099
-91 326 1102
-91 326 1104
-91 327 1107
-65 296 990
-65 297 992
-87 325 1099
-87 326 1101
-87 326 1103
-83 323 1091
-85 325 1101
-85 326 1103
-83 325 1098
-83 325 1100
-82 326 1103
-82 327 1105
-84 329 1115
-86 333 1129
-79 324 1097
-78 325 1099
-78 326 1102
-72 306 1035
-71 307 1037
-73 309 1046
-71 308 1041
-71 308 1044
-71 309 1046
-71 309 1048
-70 310 1050
-73 315 1068
-61 300 1013
-61 301 1015
-67 309 1045
-64 306 1034
-63 306 1036
-65 308 1045
-63 307 1040
-63 308 1042
-63 308 1044
-63 309 1047
-62 309 1049
-61 308 1044
-65 314 1067
-59 307 1040
-59 308 1043
-58 308 1045
-56 306 1034
-57 308 1043
-57 308 1046
-55 307 1041
-57 324 1098
-57 325 1101
-63 364 1233
-61 362 1227
-61 363 1230
-65 371 1261
9 249 802
-58 362 1226
-55 359 1214
-56 362 1226
-56 363 1229
-54 361 1222
-54 362 1225
-54 363 1228
-53 363 1231
-56 368 1251
-51 362 1228
-55 370 1257
-55 371 1260
-48 361 1223
-46 358 1212
-38 291 985
-39 293 993
-38 292 989
-38 292 991
-37 292 993
-37 293 995
-37 293 997
-35 292 993
-38 297 1010
-38 297 1012
-38 298 1014
-28 285 965
-31 290 984
-32 292 992
-32 293 994
-30 292 990
-30 292 992
-30 293 994
-29 293 996
-28 292 992
-28 292 993
-30 297 1010
-30 297 1012
-30 298 1014
-23 290 983
-23 290 985
-24 292 993
-23 291 989
-22 292 991
-22 292 993
-22 293 995
-22 293 997
-20 292 992
-22 296 1008
-22 296 1010
-22 297 1012
-3 269 904
-4 272 916
-17 292 992
-15 291 988
-15 291 990
-15 292 992
-15 292 993
-14 293 995
-13 291 991
-13 292 993
-11 291 989
-11 291 991
-11 292 993
-13 295 1007
-8 290 985
-9 291 992
-8 291 988
-7 291 990
-7 292 992
-7 279 949
-7 279 951
-5 278 947
-4 277 943
-4 277 945
-4 278 947
-5 281 960
-5 282 962
1 272 922
-1 277 943
0 277 944
0 278 946
0 278 948
0 279 950
1 278 946
1 278 948
2 277 944
2 277 946
3 278 947
1 281 960
1 282 962
5 277 944
6 277 943
6 277 945
6 278 947
6 278 949
7 279 950
8 278 946
10 290 987
10 290 989
11 291 991
11 291 993
9 295 1007
9 296 1013
34 249 831
14 290 988
14 290 990
14 291 992
15 291 994
15 292 998
16 291 992
17 290 988
18 290 990
18 291 991
17 294 1006
17 295 1008
17 296 1012
21 289 987
21 290 989
22 290 991
22 291 993
22 291 995
24 290 990
25 289 986
25 289 988
22 265 904
23 265 906
22 268 918
22 269 921
22 269 922
28 259 881
26 264 904
26 265 905
26 265 907
27 266 909
28 265 905
29 264 901
29 264 903
29 264 905
30 265 906
29 268 918
31 264 904
31 265 906
32 264 901
32 258 884
33 264 905
33 265 906
34 264 903
35 264 905
36 263 901
36 264 903
36 264 905
35 267 916
36 268 918
38 264 904
36 268 921
46 247 839
47 248 840
40 264 904
40 264 905
41 264 903
42 264 905
42 263 901
43 264 903
43 264 904
42 267 915
44 263 902
45 264 904
44 268 920
44 268 921
47 263 901
47 263 902
47 264 904
46 252 866
47 252 862
47 252 864
47 252 865
48 253 867
47 255 876
49 252 865
49 252 866
48 256 880
48 256 882
53 246 843
51 252 864
52 252 865
52 252 865
53 251 862
53 251 863
54 252 865
53 254 873
54 254 874
55 252 864
56 252 866
53 250 861
54 250 862
54 251 864
56 246 845
57 246 847
57 246 847
58 246 844
62 262 899
63 262 900
69 289 992
86 354 1216
62 256 881
15 168 598
-178 273 899
-178 273 901
-224 387 1300
-224 387 1303
-195 349 1173
-207 371 1245
-207 372 1249
-204 370 1242
-204 371 1245
-202 369 1238
-202 370 1241
-202 370 1244
-208 377 1268
-208 378 1273
-208 379 1276
-185 357 1196
-197 369 1240
-197 370 1243
-197 371 1246
-194 369 1239
-194 370 1243
-192 368 1236
-192 369 1239
-192 370 1242
-198 376 1266
-189 369 1238
-198 378 1272
-181 356 1197
-186 368 1236
-186 369 1239
-181 359 1206
-179 357 1201
-179 358 1204
-177 356 1198
-177 357 1201
-177 358 1204
-182 364 1224
-174 357 1200
-179 369 1239
-146 336 1116
-146 336 1119
-171 357 1199
-171 358 1202
-170 357 1199
-170 357 1202
-167 356 1196
-167 356 1198
-167 357 1201
-172 362 1220
-170 367 1233
-170 368 1236
-177 376 1267
-166 365 1228
-166 366 1231
-166 367 1234
-165 366 1232
-162 365 1225
-162 365 1228
-162 366 1232
-162 367 1235
-166 372 1253
-151 345 1162
-151 346 1165
-157 353 1190
-157 354 1193
-139 335 1123
-148 345 1161
-147 345 1161
-147 346 1164
-144 344 1158
-144 345 1161
-144 346 1163
-147 350 1178
-142 345 1160
-142 345 1163
-147 352 1187
-147 352 1189
-147 353 1192
-138 344 1158
-138 344 1159
-138 345 1162
-135 343 1156
-135 344 1159
-135 345 1161
-138 348 1174
-133 344 1158
-130 335 1129
-134 341 1150
-138 351 1186
-138 352 1189
-77 285 936
-129 344 1157
-129 344 1160
-133 363 1222
-133 364 1225
-133 365 1228
-129 360 1212
-129 361 1215
-131 364 1227
-129 363 1221
-129 363 1224
-128 364 1227
-128 365 1230
-120 356 1195
-126 364 1225
-124 362 1220
-124 363 1223
-124 364 1226
-119 360 1210
-119 360 1213
-121 364 1225
-119 362 1219
-119 363 1222
-119 363 1225
-119 364 1228
-103 345 1157
-107 352 1182
-103 323 1090
-103 324 1092
-103 325 1095
-99 321 1082
-99 322 1084
-101 324 1094
-99 323 1089
-99 324 1092
-99 324 1094
-99 325 1096
-99 326 1099
-96 323 1090
-95 323 1088
-95 323 1091
-95 324 1093
-91 321 1080
-91 321 1083
-92 324 1093
-91 322 1088
-90 323 1090
-90 324 1092
-90 324 1095
-90 325 1097
-64 295 982
-64 295 984
-86 323 1089
-86 323 1092
-86 324 1094
-83 321 1081
-84 323 1091
-84 324 1094
-82 323 1088
-82 323 1091
-80 315 1065
-82 324 1096
-85 330 1116
-85 330 1119
-78 322 1088
-78 323 1090
-78 323 1092
-74 320 1080
-74 321 1082
-76 323 1092
-74 322 1087
-74 323 1089
-73 323 1092
-73 324 1094
-73 324 1097
-76 329 1116
-64 314 1056
-66 306 1034
-66 307 1037
-63 304 1025
-63 304 1027
-64 307 1036
-63 305 1032
-62 306 1034
-62 306 1036
-62 307 1038
-62 307 1040
-60 306 1036
-64 312 1059
-58 305 1032
-58 306 1034
-58 306 1036
-55 304 1026
-56 306 1035
-55 305 1030
-55 305 1033
-54 306 1035
-54 306 1037
-54 307 1039
-52 306 1034
-52 306 1036
-55 304 1032
7 219 707
-50 306 1034
-48 303 1025
-49 305 1034
-48 306 1036
-49 321 1085
-53 359 1214
-53 360 1217
-53 361 1220
-55 366 1239
-51 360 1216
-55 367 1245
-55 368 1248
-48 358 1211
-45 355 1200
-45 356 1203
-46 359 1215
-45 358 1209
-44 358 1212
-44 359 1215
-44 360 1218
-44 361 1221
-42 359 1214
-45 366 1241
-45 367 1244
-38 296 1006
-28 284 958
-31 288 977
-32 290 984
-31 291 986
-30 290 982
-30 290 984
-29 291 986
-29 291 988
-28 290 984
-28 291 986
-30 295 1002
-30 295 1004
-30 296 1006
-23 288 976
-23 288 977
-24 290 985
-23 289 981
-22 290 983
-22 290 985
-22 291 987
-22 291 989
-20 290 985
-22 294 1000
-22 295 1002
-22 295 1004
-5 270 908
-4 271 909
-17 290 984
-15 289 980
-15 289 982
-15 290 984
-14 290 986
-14 291 988
-13 290 984
-13 290 986
-11 289 981
-11 290 983
-11 290 985
-9 287 975
-9 289 982
-9 290 984
-8 289 981
-7 289 983
-7 290 985
-7 290 987
-7 291 989
-5 290 984
-4 289 980
-4 289 982
-3 290 984
-5 293 998
2 281 953
1 283 957
0 288 980
0 276 937
0 276 939
0 277 941
0 277 943
1 276 939
1 277 941
2 276 937
2 276 939
3 276 940
1 280 953
1 281 959
5 276 937
5 275 936
6 276 938
6 276 940
6 277 942
7 277 943
8 276 940
9 275 936
9 275 938
10 276 939
8 279 952
8 273 933
8 274 937
31 234 781
12 269 916
13 276 939
13 276 940
14 277 942
16 289 982
16 289 984
17 288 980
18 288 982
18 289 984
17 293 998
17 293 1000
17 294 1004
21 288 979
21 288 981
22 289 983
22 289 985
22 290 987
23 288 983
24 287 979
25 288 980
25 288 982
25 289 984
24 292 998
24 293 1001
25 294 1003
31 281 955
29 288 981
29 288 983
29 289 985
30 289 987
27 263 899
28 262 895
29 263 897
29 263 898
28 266 910
28 267 912
31 263 898
31 263 900
32 262 895
32 263 897
33 263 898
33 263 900
34 263 897
34 263 899
35 262 895
36 263 897
36 263 898
35 266 909
35 266 911
37 257 879
35 261 895
45 241 817
45 242 819
40 263 897
40 263 899
41 262 897
41 263 899
42 262 895
42 262 897
43 263 898
42 265 908
44 262 896
44 262 898
43 266 913
43 267 915
46 262 895
47 262 896
47 262 898
48 262 897
48 261 893
49 261 895
49 262 896
49 262 898
49 265 907
51 262 896
51 262 897
50 266 912
48 255 876
53 245 837
51 251 858
52 249 853
52 251 860
53 250 856
53 250 858
53 251 859
53 253 867
53 253 868
55 250 858
54 254 871
54 254 873
55 254 874
57 250 855
57 250 857
59 248 848
58 250 859
59 249 855
59 250 857
60 250 858
58 247 848
58 247 849
60 245 840
59 248 852
59 248 853
60 249 855
60 249 856
60 249 858
5 176 633
-176 271 893
-176 272 895
-222 383 1287
-222 384 1290
-151 256 863
-205 367 1230
-205 368 1234
-205 369 1237
-206 376 1264
-184 355 1185
-195 366 1228
-195 367 1231
-195 368 1234
-192 366 1228
-193 367 1231
-190 365 1224
-190 366 1227
-190 367 1230
-196 373 1253
-188 366 1226
-196 375 1260
-185 364 1221
-177 358 1197
-185 366 1227
-185 367 1230
-183 365 1225
-183 366 1228
-180 364 1222
-180 365 1225
-180 366 1228
-185 372 1249
-178 365 1224
-178 366 1227
-145 333 1106
-145 334 1109
-175 365 1223
-170 355 1191
-168 354 1188
-168 355 1191
-166 353 1184
-166 354 1187
-166 355 1190
-170 360 1209
-163 354 1187
-163 354 1190
-170 362 1218
-160 352 1182
-160 353 1185
-160 354 1187
-159 353 1186
-156 352 1179
-161 363 1217
-161 363 1220
-161 364 1223
-165 369 1241
-158 363 1219
-158 364 1222
-165 372 1250
-165 372 1253
-145 352 1177
-154 363 1218
-154 363 1218
-154 364 1221
-151 362 1215
-151 363 1218
-151 363 1221
-154 368 1237
-141 342 1150
-141 343 1152
-146 349 1176
-146 350 1179
-137 341 1145
-137 342 1147
-136 342 1149
-136 343 1151
-134 341 1146
-134 342 1148
-134 342 1151
-137 346 1164
-132 342 1148
-132 342 1150
-136 348 1172
-136 349 1175
-136 350 1178
-76 283 929
-128 341 1147
-127 342 1149
-125 340 1144
-125 341 1146
-125 342 1149
-121 338 1135
-123 341 1146
-123 342 1149
-121 340 1143
-127 361 1212
-127 362 1215
-119 352 1181
-119 353 1184
-125 361 1213
-123 360 1208
-123 360 1211
-123 361 1214
-115 347 1165
-115 348 1167
-120 361 1213
-118 359 1207
-118 360 1210
-118 361 1213
-118 362 1216
-106 348 1164
-115 360 1209
-113 359 1206
-113 360 1209
-113 360 1212
-109 356 1196
-109 357 1199
-111 360 1211
-109 358 1205
-109 359 1208
-109 360 1211
-108 361 1214
-98 323 1089
-95 321 1081
-94 321 1079
-94 321 1082
-94 322 1084
-90 319 1071
-90 319 1074
-92 322 1084
-90 320 1078
-90 321 1081
-90 322 1083
-90 322 1086
-89 323 1088
-64 293 975
-68 298 994
-86 321 1080
-86 321 1082
-85 322 1085
-82 319 1072
-83 321 1082
-83 322 1084
-82 320 1079
-81 321 1082
-81 322 1084
-81 322 1086
-85 328 1107
-78 320 1077
-77 320 1079
-77 321 1081
-77 321 1083
-74 318 1071
-73 312 1053
-73 313 1055
-73 320 1078
-73 320 1080
-73 321 1083
-73 322 1085
-73 322 1087
-76 327 1106
-63 312 1047
-69 320 1079
-69 321 1082
-66 318 1069
-65 318 1072
-67 321 1081
-65 319 1076
-65 320 1079
-65 320 1081
-65 321 1083
-64 322 1086
-63 320 1081
-64 310 1050
-58 303 1024
-58 304 1026
-55 301 1016
-55 302 1018
-56 304 1027
-54 303 1022
-54 304 1024
-54 304 1026
-54 305 1029
-54 305 1031
-52 304 1026
-52 304 1028
-56 310 1050
7 222 714
-50 304 1026
-47 301 1017
-48 304 1025
-48 304 1028
-47 303 1023
-46 304 1025
-46 304 1027
-46 305 1029
-44 303 1025
-44 304 1027
-47 309 1047
-47 310 1049
-48 356 1200
-45 353 1189
-45 353 1192
-46 357 1204
-44 355 1198
-44 356 1201
-44 356 1204
-43 357 1206
-43 358 1209
-41 356 1203
-45 363 1229
-45 364 1232
-44 365 1235
-31 343 1153
-36 353 1190
-37 356 1202
-37 357 1205
-35 355 1199
-35 356 1202
-34 356 1205
-34 357 1207
-28 289 976
-27 289 978
-30 293 994
-30 294 996
-25 288 973
-23 286 968
-23 287 970
-24 289 978
-23 288 974
-22 288 976
-22 289 978
-22 289 979
-21 290 981
-20 289 977
-22 292 992
-22 293 994
-22 293 996
-5 269 901
-4 269 903
-17 288 977
-15 287 973
-15 288 975
-15 288 976
-14 289 978
-14 289 980
-13 288 976
-13 289 978
-11 288 974
-11 288 976
-11 288 978
-9 286 968
-9 288 975
-9 288 977
-8 287 973
-7 288 975
-7 288 977
-7 289 979
-7 289 981
-5 288 977
-4 287 973
-4 288 975
-4 288 977
-5 292 991
2 280 946
1 281 950
-1 287 972
0 287 974
0 288 976
0 288 978
0 289 980
1 288 976
1 288 978
2 287 974
3 287 975
3 288 977
1 292 991
1 293 997
5 274 931
5 274 930
6 274 931
6 275 933
6 275 935
7 276 936
8 275 933
9 274 929
9 274 931
9 274 932
8 278 945
8 278 947
8 279 951
32 238 790
13 274 930
13 274 932
13 275 934
13 275 935
15 274 932
15 275 933
16 274 930
16 274 931
17 274 933
15 278 946
16 278 947
16 279 951
19 273 929
21 286 974
21 287 976
22 287 978
22 288 979
23 287 975
24 286 971
24 286 973
25 287 975
25 287 977
24 291 991
24 291 994
25 292 996
31 279 948
28 286 974
29 287 976
29 287 978
29 288 980
30 287 975
32 285 971
32 286 973
32 286 975
31 290 989
32 290 991
34 286 974
32 291 995
36 285 971
32 261 891
33 262 892
33 262 894
34 261 891
34 262 893
35 261 889
35 261 891
36 262 892
35 264 903
35 265 905
37 261 892
36 266 908
46 245 828
46 245 829
39 261 891
40 262 893
40 261 891
41 262 892
42 261 889
42 261 890
42 261 892
42 264 902
44 261 890
44 261 891
43 265 907
43 265 908
46 260 888
46 261 890
47 261 891
47 261 890
48 260 887
48 260 888
49 261 890
48 263 899
49 263 901
50 260 889
51 261 891
50 264 905
50 265 907
55 254 866
53 260 888
54 259 883
54 260 890
55 259 886
55 260 888
55 260 889
55 262 898
55 263 899
54 249 853
54 253 865
54 253 867
54 253 868
57 248 850
57 249 851
57 249 852
58 249 853
58 248 850
59 249 851
59 249 852
59 251 859
59 251 861
61 249 852
60 252 864
60 252 865
61 252 867
61 253 868
61 253 869
-183 282 927
-175 270 889
-220 380 1274
-220 381 1277
-220 382 1280
-211 376 1256
-209 374 1251
-209 374 1252
-215 387 1294
-215 388 1297
-203 372 1241
-206 375 1255
-206 376 1258
-204 374 1251
-186 363 1215
-194 372 1247
-183 362 1210
-183 362 1213
-183 363 1216
-183 364 1219
-181 363 1214
-178 361 1207
-179 362 1210
-179 362 1213
-179 363 1216
-184 369 1237
-176 362 1212
-184 370 1243
-144 331 1097
-144 332 1100
-173 362 1212
-173 363 1215
-171 362 1211
-169 360 1205
-169 361 1208
-169 362 1211
-169 362 1214
-173 368 1233
-167 361 1210
-173 369 1239
-173 370 1242
-159 350 1171
-159 350 1174
-159 351 1177
-157 351 1175
-155 349 1169
-159 360 1205
-159 361 1208
-159 362 1211
-159 356 1194
-153 350 1174
-159 357 1199
-159 358 1202
-159 359 1205
-140 340 1134
-149 350 1173
-148 350 1173
-150 358 1200
-150 359 1203
-150 360 1206
-150 361 1209
-153 365 1225
-147 360 1206
-147 361 1209
-153 367 1234
-153 368 1237
-143 358 1200
-143 359 1203
-143 359 1204
-140 358 1198
-140 358 1201
-133 339 1138
-133 340 1141
-135 343 1153
-131 339 1138
-131 340 1140
-135 346 1161
-135 346 1164
-135 347 1167
-76 282 922
-126 339 1137
-126 340 1139
-124 338 1134
-124 339 1136
-124 339 1139
-120 336 1125
-122 339 1136
-122 339 1138
-120 338 1133
-120 338 1135
-120 339 1138
-112 331 1108
-114 334 1118
-117 339 1136
-116 337 1132
-115 338 1134
-115 339 1137
-111 335 1123
-113 338 1134
-113 339 1136
-111 337 1131
-111 338 1133
-117 358 1202
-117 359 1205
-105 345 1154
-111 347 1165
-112 356 1195
-112 357 1198
-112 358 1201
-108 354 1185
-108 354 1188
-110 358 1200
-108 356 1194
-108 357 1197
-108 357 1200
-107 358 1203
-107 359 1205
-104 356 1195
-103 355 1193
-103 356 1196
-103 357 1199
-99 353 1183
-99 354 1186
-101 357 1198
-99 355 1192
-98 356 1195
-98 357 1198
-89 320 1076
-89 321 1079
-64 291 967
-67 296 987
-85 319 1071
-85 319 1073
-85 320 1076
-81 317 1063
-83 319 1073
-83 320 1075
-81 318 1070
-81 319 1073
-81 320 1075
-80 320 1077
-84 325 1097
-77 318 1068
-77 318 1070
-77 319 1072
-76 319 1074
-73 316 1062
-73 311 1045
-73 311 1047
-73 318 1069
-73 318 1071
-72 319 1073
-72 320 1076
-75 324 1094
-75 325 1097
-63 310 1039
-68 318 1070
-68 319 1073
-65 316 1061
-65 316 1063
-66 319 1072
-65 317 1067
-64 318 1070
-64 318 1072
-64 319 1074
-64 320 1077
-62 318 1072
-66 325 1096
-60 317 1068
-60 318 1070
-57 315 1059
-57 316 1062
-58 318 1071
-57 317 1066
-56 317 1068
-56 318 1071
-54 303 1020
-53 303 1022
-52 302 1018
-52 303 1020
-55 308 1041
7 221 710
-49 302 1018
-47 300 1009
-48 302 1017
-48 302 1019
-46 301 1015
-46 302 1017
-46 302 1019
-46 303 1021
-44 302 1017
-44 302 1019
-47 307 1039
-47 308 1041
-41 301 1015
-39 299 1008
-39 300 1010
-40 302 1018
-39 301 1014
-38 301 1016
-38 302 1018
-38 302 1020
-38 303 1022
-36 302 1018
-39 306 1036
-39 307 1038
-31 324 1090
-30 340 1143
-36 350 1179
-37 353 1191
-35 352 1185
-35 352 1188
-34 353 1191
-34 354 1193
-34 355 1196
-32 353 1190
-32 354 1193
-35 360 1217
-35 361 1220
-29 352 1185
-27 350 1178
-28 353 1189
-27 353 1192
-26 352 1186
-26 352 1189
-22 287 970
-22 288 972
-21 288 974
-20 287 970
-22 291 985
-22 291 987
-22 292 989
-5 267 895
-4 268 897
-16 287 969
-15 286 965
-15 286 967
-15 287 969
-14 287 971
-14 288 973
-13 287 969
-13 287 971
-11 286 967
-11 286 969
-11 287 970
-9 284 961
-9 286 967
-9 286 969
-8 286 966
-7 286 968
-7 287 970
-7 287 972
-7 282 956
-5 280 948
-4 279 944
-4 286 967
-4 286 969
-5 290 983
1 278 939
1 280 943
-1 285 965
0 286 967
0 286 969
0 287 971
0 287 972
1 286 968
1 286 970
2 285 966
3 286 968
3 286 970
1 290 984
5 285 965
5 285 967
6 285 966
6 286 968
6 286 969
7 287 971
7 287 973
8 286 969
9 285 965
10 285 967
9 273 926
8 276 938
8 277 940
32 234 775
31 237 786
12 272 924
13 273 925
13 273 927
13 274 929
14 273 925
15 273 927
16 272 923
16 273 925
16 273 926
15 276 939
15 277 941
15 277 944
19 272 922
19 272 924
20 273 926
20 273 927
20 273 929
21 273 925
23 272 922
23 272 923
23 272 925
23 273 927
22 276 939
22 277 942
24 290 988
31 278 941
28 285 967
28 285 969
29 286 970
30 285 966
30 285 968
31 284 964
32 284 966
32 285 968
31 288 981
31 289 983
34 285 967
32 290 987
35 284 964
36 284 966
36 285 967
36 285 969
37 284 966
38 285 968
39 284 964
39 284 966
39 284 967
34 263 897
35 263 898
37 260 886
35 264 901
45 244 823
43 249 843
39 260 885
39 260 887
40 260 885
41 259 881
41 259 883
42 260 884
42 260 886
41 263 896
43 259 884
44 260 885
42 264 900
43 264 902
45 259 882
46 259 884
46 260 885
47 259 884
47 253 863
47 254 864
47 254 866
47 256 874
47 257 876
50 259 883
49 263 898
49 263 899
50 264 901
54 253 860
52 259 882
53 259 882
53 259 884
54 258 880
55 258 882
55 259 883
55 261 891
55 261 893
56 259 882
56 262 896
56 262 898
56 263 899
59 258 879
59 258 880
59 258 881
60 258 883
61 257 879
58 247 845
59 248 847
58 250 854
59 250 855
60 248 846
60 251 858
60 251 859
60 251 861
61 252 862
61 252 864
-181 281 920
-224 389 1300
-149 253 850
-224 391 1307
-215 384 1282
-213 382 1274
-213 383 1278
-213 384 1281
-214 385 1286
-207 380 1267
-204 372 1243
-204 373 1246
-202 371 1239
-202 372 1242
-202 373 1245
-208 379 1269
-208 381 1274
-208 381 1275
-186 360 1197
-197 372 1241
-197 372 1244
-192 368 1227
-206 395 1318
-203 393 1311
-175 359 1201
-182 368 1231
-143 329 1088
-143 330 1090
-171 359 1200
-171 360 1203
-170 359 1200
-167 357 1193
-167 358 1196
-167 359 1199
-167 360 1202
-172 365 1221
-165 359 1199
-172 366 1227
-172 367 1230
-161 357 1194
-162 358 1196
-162 359 1199
-160 358 1198
-158 357 1191
-158 357 1194
-158 358 1197
-158 359 1200
-157 353 1183
-151 348 1163
-157 355 1188
-157 355 1191
-157 356 1194
-139 337 1124
-148 348 1162
-147 347 1162
-149 356 1189
-149 357 1192
-149 357 1195
-149 358 1198
-152 362 1213
-142 347 1161
-148 353 1185
-147 354 1187
-147 355 1190
-138 346 1156
-138 346 1159
-142 357 1193
-139 355 1187
-139 356 1190
-139 357 1193
-139 357 1196
-142 361 1209
-137 356 1192
-137 357 1195
-142 363 1218
-142 364 1221
-142 365 1224
-78 293 958
-132 356 1191
-132 357 1194
-123 336 1124
-123 336 1126
-123 337 1129
-119 333 1115
-121 336 1126
-121 337 1128
-119 335 1123
-119 336 1125
-119 337 1128
-111 329 1098
-116 336 1123
-116 336 1126
-115 335 1122
-114 336 1124
-114 336 1127
-111 333 1113
-112 336 1124
-112 336 1127
-110 335 1121
-110 335 1124
-110 336 1126
-110 337 1129
-100 326 1088
-107 335 1123
-106 334 1120
-106 335 1123
-106 336 1125
-102 332 1112
-107 352 1177
-109 355 1189
-107 353 1183
-107 354 1186
-107 355 1189
-107 355 1191
-106 356 1194
-103 353 1184
-102 353 1182
-102 354 1185
-102 354 1188
-98 350 1173
-98 351 1175
-100 354 1187
-98 353 1181
-98 353 1184
-98 354 1187
-97 355 1189
-97 356 1192
-69 319 1057
-73 326 1081
-93 353 1183
-93 354 1186
-89 350 1171
-89 350 1174
-91 353 1185
-89 352 1179
-89 353 1182
-80 317 1064
-80 318 1066
-80 318 1068
-83 323 1088
-76 316 1058
-76 316 1061
-76 317 1063
-76 317 1065
-73 314 1053
-74 317 1063
-74 317 1065
-72 316 1060
-72 316 1062
-72 317 1065
-72 318 1067
-75 322 1085
-75 323 1087
-62 308 1030
-68 316 1062
-68 317 1064
-65 314 1052
-65 314 1054
-66 317 1064
-64 315 1059
-64 316 1061
-64 316 1063
-64 317 1065
-63 318 1068
-62 316 1063
-66 323 1087
-60 315 1059
-58 308 1035
-57 313 1051
-57 314 1053
-58 316 1062
-56 315 1057
-56 315 1060
-56 316 1062
-56 316 1064
-55 317 1066
-54 316 1061
-57 322 1084
7 228 729
7 228 730
-51 316 1061
-49 313 1052
-50 315 1061
-49 316 1063
-46 299 1007
-46 300 1009
-46 300 1011
-45 301 1013
-44 300 1009
-44 300 1011
-47 305 1030
-41 299 1005
-41 299 1007
-39 297 1000
-39 298 1002
-40 300 1010
-38 299 1006
-38 299 1008
-38 300 1010
-38 300 1012
-37 301 1014
-36 300 1010
-39 305 1028
-39 305 1030
-29 292 979
-27 291 974
-31 297 1001
-32 300 1009
-31 298 1005
-31 299 1007
-30 299 1009
-30 300 1011
-31 316 1065
-32 350 1179
-35 357 1203
-35 357 1206
-34 358 1209
-28 349 1174
-27 347 1167
-28 350 1178
-27 351 1181
-26 349 1175
-25 350 1178
-25 351 1181
-25 351 1183
-24 352 1186
-23 350 1180
-25 356 1202
-25 357 1205
-25 358 1208
-4 321 1070
-8 330 1103
-18 350 1179
-15 284 958
-15 285 960
-15 285 962
-14 286 964
-14 286 966
-13 285 962
-12 284 958
-11 284 960
-11 285 961
-11 285 963
-9 283 954
-9 284 960
-8 284 957
-8 284 959
-7 285 961
-7 285 963
-7 286 964
-7 287 971
-5 285 962
-4 284 958
-4 284 960
-4 285 962
-5 288 976
1 277 932
1 278 936
-1 284 958
0 284 960
0 285 961
0 285 963
0 285 965
1 284 961
2 283 957
2 284 959
3 284 961
3 285 963
1 288 976
5 283 958
5 284 960
6 284 958
6 284 960
6 284 962
7 285 964
9 282 954
8 284 962
9 283 958
10 284 960
10 284 961
9 288 975
9 288 977
33 242 799
32 245 810
13 283 959
13 284 961
14 284 963
14 285 964
14 271 918
15 270 915
16 271 916
16 271 918
16 272 920
15 275 932
15 276 936
15 276 937
19 270 916
19 271 917
20 271 919
20 272 921
20 272 922
21 271 919
22 270 915
23 271 917
23 271 918
22 274 931
22 275 932
22 275 935
23 276 937
29 265 894
26 271 918
27 271 919
27 271 921
28 271 917
28 271 919
29 270 915
31 283 959
32 283 960
31 287 974
31 287 976
33 283 960
32 288 980
35 282 957
35 283 958
36 283 960
36 283 962
37 283 959
37 283 961
38 282 957
39 282 958
39 283 960
38 286 973
40 282 958
41 283 960
39 288 978
49 263 885
47 269 909
43 282 959
43 283 961
44 282 958
45 281 954
45 282 956
41 258 878
42 259 880
41 261 890
43 258 878
43 259 879
42 262 894
45 257 875
45 258 876
45 258 878
47 255 867
46 258 878
47 257 875
48 258 876
48 258 878
47 260 887
48 261 888
49 258 877
48 261 891
49 262 893
49 262 894
54 252 854
51 252 859
51 252 858
52 252 860
53 252 856
53 252 858
54 258 877
54 260 885
54 260 887
56 257 876
55 261 890
56 261 891
56 261 893
58 256 873
59 257 874
59 257 875
59 257 877
60 256 873
60 257 874
61 257 876
61 259 883
61 259 885
62 257 875
62 260 888
62 260 889
63 261 891
60 250 856
60 251 858
-222 386 1287
-222 387 1291
-213 381 1269
-211 379 1262
-211 380 1265
-211 381 1268
-211 382 1273
-205 377 1254
-208 381 1268
-208 382 1271
-206 380 1264
-206 380 1267
-212 387 1292
-212 388 1295
-213 389 1300
-212 390 1302
-182 360 1194
-201 380 1266
-201 381 1269
-195 376 1252
-193 369 1228
-190 367 1222
-190 368 1225
-190 368 1228
-196 375 1251
-196 376 1254
-188 368 1227
-196 377 1261
-185 367 1222
-185 368 1225
-185 368 1228
-164 356 1188
-170 364 1216
-170 364 1219
-160 355 1183
-160 355 1185
-160 356 1188
-159 356 1187
-157 354 1180
-157 355 1183
-157 356 1186
-160 360 1203
-160 361 1206
-154 355 1185
-160 362 1212
-160 363 1215
-160 364 1218
-150 354 1182
-150 355 1185
-150 355 1184
-147 353 1178
-147 354 1181
-147 355 1184
-150 359 1199
-150 360 1202
-145 355 1183
-146 351 1174
-146 352 1177
-150 363 1214
-137 343 1146
-137 344 1148
-137 344 1150
-138 352 1176
-138 353 1179
-138 354 1182
-141 358 1195
-140 358 1198
-132 344 1149
-137 350 1170
-137 350 1173
-137 351 1176
-137 352 1179
-78 292 951
-131 353 1180
-129 352 1174
-129 352 1177
-129 353 1180
-129 354 1183
-124 350 1167
-126 353 1179
-124 351 1173
-124 352 1176
-124 353 1179
-124 354 1182
-116 345 1149
-115 333 1114
-114 332 1110
-114 333 1112
-114 333 1115
-115 336 1124
-110 331 1104
-111 333 1114
-111 334 1117
-109 333 1111
-109 333 1114
-109 334 1116
-109 334 1119
-99 324 1079
-106 333 1113
-105 332 1110
-105 333 1113
-105 334 1115
-101 330 1102
-101 331 1105
-103 333 1115
-101 332 1110
-101 333 1112
-101 333 1115
-100 334 1117
-104 339 1136
-98 332 1110
-97 332 1109
-96 332 1111
-96 333 1114
-97 348 1162
-97 349 1165
-99 352 1176
-97 350 1170
-97 351 1173
-97 351 1176
-97 352 1179
-96 353 1181
-68 317 1049
-72 323 1072
-92 350 1172
-92 351 1175
-88 347 1160
-88 348 1163
-90 351 1174
-88 349 1168
-88 350 1171
-88 351 1174
-88 351 1177
-87 352 1179
-91 359 1203
-84 349 1168
-83 350 1170
-83 350 1173
-80 346 1158
-79 347 1161
-74 315 1054
-73 315 1056
-72 314 1051
-72 314 1054
-71 315 1056
-71 316 1058
-74 320 1076
-74 321 1078
-62 306 1022
-68 314 1053
-67 315 1055
-64 312 1043
-66 314 1053
-65 315 1055
-64 313 1050
-64 314 1052
-63 314 1054
-63 315 1057
-64 317 1066
-61 314 1054
-65 321 1078
-59 313 1050
-58 306 1027
-56 311 1042
-56 312 1044
-57 314 1053
-56 313 1049
-56 313 1051
-55 314 1053
-55 314 1055
-55 315 1058
-53 314 1053
-57 320 1075
7 223 713
7 227 726
-51 314 1052
-48 311 1043
-49 314 1052
-48 312 1047
-48 313 1050
-47 313 1052
-47 314 1054
-47 315 1056
-45 313 1051
-49 319 1073
-48 319 1075
-43 312 1048
-43 313 1050
-40 311 1042
-40 298 1000
-40 298 1002
-38 297 998
-38 298 1000
-38 298 1002
-37 299 1004
-39 302 1016
-36 298 1002
-39 303 1020
-38 303 1022
-28 290 972
-27 289 967
-31 296 993
-32 298 1001
-31 297 997
-30 297 999
-30 298 1001
-30 298 1003
-30 299 1005
-28 298 1001
-31 302 1017
-30 303 1020
-30 303 1022
-25 297 997
-24 295 992
-25 297 1000
-24 298 1002
-23 297 998
-23 312 1050
-23 313 1052
-25 349 1173
-23 347 1167
-23 348 1170
-25 354 1191
-25 354 1194
-25 355 1197
-4 319 1061
-17 345 1157
-18 348 1169
-17 346 1163
-17 347 1165
-16 347 1168
-16 348 1171
-16 349 1174
-14 347 1168
-13 346 1162
-12 346 1164
-12 347 1167
-14 352 1187
-9 344 1156
-9 283 953
-8 282 950
-8 283 952
-7 283 954
-7 283 955
-7 284 957
-6 283 953
-5 283 955
-4 282 951
-4 283 953
-4 283 955
-5 287 968
1 275 925
-2 283 953
-1 282 951
0 283 953
0 283 954
0 283 956
0 284 958
1 283 954
2 282 950
2 282 952
2 283 954
3 283 956
1 287 969
5 282 951
5 282 952
6 282 951
6 282 953
6 283 955
7 283 957
8 282 953
8 283 955
9 282 951
9 282 953
10 283 954
8 286 968
9 287 970
33 241 794
32 244 805
13 282 952
13 282 954
14 283 955
14 283 957
15 282 953
16 281 949
16 282 951
17 282 953
17 283 955
16 286 968
16 287 972
19 281 950
20 281 950
20 282 952
19 270 912
20 270 914
20 271 916
21 270 912
22 269 909
22 269 910
23 270 912
22 273 924
22 273 926
22 274 928
28 263 887
29 263 888
26 269 911
26 270 913
27 270 914
28 269 911
28 270 912
29 269 909
29 269 910
30 269 912
29 273 924
29 273 926
31 269 912
29 268 909
32 263 889
32 263 891
33 269 912
34 270 914
35 269 911
36 268 907
38 280 950
38 281 951
39 281 953
38 285 966
40 281 951
40 281 953
39 286 971
49 262 879
47 268 903
43 281 952
43 281 954
44 281 951
45 280 947
45 280 949
45 280 951
45 284 962
45 284 964
47 280 950
47 281 952
46 285 970
49 279 947
49 280 948
50 280 950
50 280 949
46 257 872
47 256 869
47 256 870
48 257 872
47 259 881
47 259 882
49 257 871
48 260 885
48 261 887
49 261 888
53 251 849
52 256 870
52 256 870
52 257 872
53 256 868
54 256 870
54 256 871
52 253 861
53 253 863
54 251 853
53 254 866
54 254 867
54 255 869
56 250 850
57 250 851
57 250 852
58 251 853
60 255 867
60 255 868
60 256 870
60 258 877
62 255 868
62 255 869
61 259 882
62 259 883
62 259 885
62 260 886
59 245 835
-179 277 905
-214 372 1237
-227 396 1318
-227 397 1321
-224 402 1336
-221 400 1328
-221 401 1332
-222 402 1336
-222 403 1341
-203 374 1242
-206 378 1255
-204 376 1248
-204 377 1252
-204 377 1255
-210 384 1279
-210 385 1282
-211 386 1287
-187 364 1206
-187 365 1209
-199 377 1254
-199 378 1257
-193 373 1240
-196 377 1253
-194 375 1246
-194 376 1249
-194 377 1253
-200 383 1277
-200 384 1280
-191 376 1252
-200 386 1287
-188 375 1246
-183 365 1213
-183 366 1216
-179 362 1202
-181 365 1214
-179 363 1208
-179 364 1211
-179 365 1214
-184 371 1235
-184 371 1238
-176 365 1213
-170 396 1303
-182 410 1355
-158 353 1176
-155 351 1170
-155 352 1172
-155 353 1175
-159 357 1192
-159 358 1195
-153 353 1175
-159 360 1200
-159 360 1203
-159 361 1206
-149 352 1171
-149 352 1174
-148 352 1174
-146 351 1167
-146 351 1170
-146 352 1173
-149 356 1188
-149 357 1191
-144 352 1173
-149 358 1197
-149 359 1199
-149 360 1202
-140 351 1167
-139 351 1170
-139 352 1171
-137 350 1165
-137 351 1168
-137 351 1171
-139 355 1184
-139 356 1187
-135 351 1170
-139 357 1193
-139 358 1196
-135 349 1165
-77 290 942
-77 290 944
-130 351 1169
-128 349 1163
-128 350 1166
-128 351 1169
-128 351 1172
-123 347 1157
-125 351 1168
-123 349 1162
-123 350 1165
-123 350 1168
-123 351 1171
-115 343 1139
-120 350 1166
-119 349 1161
-119 349 1164
-119 350 1167
-118 351 1170
-114 347 1155
-116 350 1167
-116 351 1169
-114 349 1163
-114 350 1166
-114 350 1169
-114 351 1172
-98 322 1070
-106 331 1104
-104 330 1101
-104 331 1103
-104 331 1106
-100 328 1093
-100 328 1095
-102 331 1105
-100 330 1100
-100 330 1103
-100 331 1105
-100 332 1107
-103 337 1126
-97 330 1101
-96 329 1099
-96 330 1102
-95 331 1104
-92 327 1091
-92 328 1094
-93 330 1104
-92 329 1098
-91 330 1101
-91 330 1103
-91 331 1106
-91 332 1108
-68 315 1040
-72 321 1063
-92 348 1161
-91 349 1164
-88 345 1150
-88 345 1152
-89 348 1164
-87 347 1158
-87 348 1161
-87 348 1163
-87 349 1166
-87 350 1169
-91 356 1192
-83 347 1157
-83 347 1160
-83 348 1162
-79 344 1148
-79 345 1151
-80 348 1162
-78 346 1156
-78 347 1159
-78 348 1162
-78 348 1164
-78 349 1167
-81 355 1189
-81 356 1192
-67 337 1124
-74 347 1161
-73 348 1163
-64 310 1035
-65 312 1044
-65 313 1046
-63 311 1041
-63 312 1044
-63 313 1046
-63 313 1048
-61 312 1043
-61 312 1046
-65 319 1069
-59 311 1042
-59 312 1044
-56 309 1034
